ncols         101
nrows         89
xllcorner     500000
yllcorner     5400030
cellsize      10.000000
NODATA_value  -9999
111.251666 112.262047 113.168815 113.969129 114.661051 115.243541 115.716453 116.080507 116.337273 116.489131 116.539233 116.491462 116.350371 116.121137 115.809493 115.421661 114.964291 114.444381 113.869207 113.246250 112.583115 111.887461 111.166920 110.429028 109.681155 108.930429 108.183679 107.447369 106.727541 106.029768 105.359101 104.720036 104.116472 103.551690 103.028329 102.548373 102.113143 101.723295 101.378833 101.079116 100.822881 100.608271 100.432866 100.293721 100.187413 100.110084 100.057502 100.025111 100.008095 100.001440 100.000000 99.998560 99.991905 99.974889 99.942498 99.889916 99.812587 99.706279 99.567134 99.391729 99.177119 98.920884 98.621167 98.276705 97.886857 97.451627 96.971671 96.448310 95.883528 95.279964 94.640899 93.970232 93.272459 92.552631 91.816321 91.069571 90.318845 89.570972 88.833080 88.112539 87.416885 86.753750 86.130793 85.555619 85.035709 84.578339 84.190507 83.878863 83.649629 83.508538 83.460767 83.510869 83.662727 83.919493 84.283547 84.756459 85.338949 86.030871 86.831185 87.737953 88.748334
112.135255 113.097370 113.948241 114.685302 115.306962 115.812591 116.202515 116.477986 116.641158 116.695048 116.643489 116.491084 116.243145 115.905631 115.485081 114.988542 114.423492 113.797762 113.119459 112.396876 111.638418 110.852514 110.047538 109.231728 108.413109 107.599419 106.798037 106.015919 105.259537 104.534818 103.847104 103.201101 102.600844 102.049673 101.550204 101.104320 100.713163 100.377132 100.095898 99.868413 99.692938 99.567071 99.487785 99.451470 99.453986 99.490710 99.556602 99.646265 99.754014 99.873944 100.000000 100.126056 100.245986 100.353735 100.443398 100.509290 100.546014 100.548530 100.512215 100.432929 100.307062 100.131587 99.904102 99.622868 99.286837 98.895680 98.449796 97.950327 97.399156 96.798899 96.152896 95.465182 94.740463 93.984081 93.201963 92.400581 91.586891 90.768272 89.952462 89.147486 88.361582 87.603124 86.880541 86.202238 85.576508 85.011458 84.514919 84.094369 83.756855 83.508916 83.356511 83.304952 83.358842 83.522014 83.797485 84.187409 84.693038 85.314698 86.051759 86.902630 87.864745
112.911130 113.821449 114.613857 115.286073 115.836842 116.265935 116.574125 116.763166 116.835761 116.795517 116.646898 116.395173 116.046344 115.607089 115.084681 114.486912 113.822014 113.098570 112.325431 111.511626 110.666274 109.798495 108.917322 108.031619 107.149992 106.280717 105.431659 104.610205 103.823197 103.076873 102.376818 101.727913 101.134302 100.599358 100.125664 99.714993 99.368310 99.085765 98.866712 98.709720 98.612603 98.572451 98.585675 98.648049 98.754767 98.900503 99.079473 99.285505 99.512114 99.752574 100.000000 100.247426 100.487886 100.714495 100.920527 101.099497 101.245233 101.351951 101.414325 101.427549 101.387397 101.290280 101.133288 100.914235 100.631690 100.285007 99.874336 99.400642 98.865698 98.272087 97.623182 96.923127 96.176803 95.389795 94.568341 93.719283 92.850008 91.968381 91.082678 90.201505 89.333726 88.488374 87.674569 86.901430 86.177986 85.513088 84.915319 84.392911 83.953656 83.604827 83.353102 83.204483 83.164239 83.236834 83.425875 83.734065 84.163158 84.713927 85.386143 86.178551 87.088870
113.572406 114.427617 115.159281 115.765398 116.245046 116.598376 116.826586 116.931899 116.917524 116.787611 116.547200 116.202158 115.759117 115.225394 114.608920 113.918152 113.161990 112.349682 111.490737 110.594829 109.671703 108.731082 107.782575 106.835586 105.899226 104.982232 104.092885 103.238937 102.427542 101.665197 100.957682 100.310019 99.726427 99.210293 98.764148 98.389653 98.087596 97.857890 97.699587 97.610902 97.589233 97.631207 97.732715 97.888972 98.094566 98.343531 98.629407 98.945321 99.284065 99.638170 100.000000 100.361830 100.715935 101.054679 101.370593 101.656469 101.905434 102.111028 102.267285 102.368793 102.410767 102.389098 102.300413 102.142110 101.912404 101.610347 101.235852 100.789707 100.273573 99.689981 99.042318 98.334803 97.572458 96.761063 95.907115 95.017768 94.100774 93.164414 92.217425 91.268918 90.328297 89.405171 88.509263 87.650318 86.838010 86.081848 85.391080 84.774606 84.240883 83.797842 83.452800 83.212389 83.082476 83.068101 83.173414 83.401624 83.754954 84.234602 84.840719 85.572383 86.427594
114.113212 114.910238 115.579158 116.118255 116.526931 116.805697 116.956151 116.980944 116.883750 116.669208 116.342871 115.911144 115.381208 114.760947 114.058865 113.283998 112.445821 111.554157 110.619080 109.650814 108.659638 107.655784 106.649346 105.650183 104.667827 103.711395 102.789510 101.910222 101.080936 100.308351 99.598398 98.956196 98.386010 97.891217 97.474282 97.136750 96.879233 96.701418 96.602079 96.579101 96.629506 96.749497 96.934504 97.179233 97.477735 97.823470 98.209379 98.627966 99.071378 99.531491 100.000000 100.468509 100.928622 101.372034 101.790621 102.176530 102.522265 102.820767 103.065496 103.250503 103.370494 103.420899 103.397921 103.298582 103.120767 102.863250 102.525718 102.108783 101.613990 101.043804 100.401602 99.691649 98.919064 98.089778 97.210490 96.288605 95.332173 94.349817 93.350654 92.344216 91.340362 90.349186 89.380920 88.445843 87.554179 86.716002 85.941135 85.239053 84.618792 84.088856 83.657129 83.330792 83.116250 83.019056 83.043849 83.194303 83.473069 83.881745 84.420842 85.089762 85.886788
114.528747 115.264752 115.869212 116.340691 116.678906 116.884706 116.960056 116.908001 116.732628 116.439010 116.033152 115.521921 114.912975 114.214680 113.436025 112.586534 111.676165 110.715219 109.714235 108.683889 107.634895 106.577901 105.523392 104.481587 103.462351 102.475104 101.528731 100.631509 99.791031 99.014138 98.306865 97.674389 97.120985 96.650000 96.263819 95.963862 95.750572 95.623423 95.580931 95.620683 95.739365 95.932803 96.196015 96.523267 96.908136 97.343584 97.822029 98.335436 98.875392 99.433208 100.000000 100.566792 101.124608 101.664564 102.177971 102.656416 103.091864 103.476733 103.803985 104.067197 104.260635 104.379317 104.419069 104.376577 104.249428 104.036138 103.736181 103.350000 102.879015 102.325611 101.693135 100.985862 100.208969 99.368491 98.471269 97.524896 96.537649 95.518413 94.476608 93.422099 92.365105 91.316111 90.285765 89.284781 88.323835 87.413466 86.563975 85.785320 85.087025 84.478079 83.966848 83.560990 83.267372 83.091999 83.039944 83.115294 83.321094 83.659309 84.130788 84.735248 85.471253
114.815325 115.487721 116.026285 116.429863 116.698466 116.833264 116.836556 116.711739 116.463261 116.096572 115.618060 115.034982 114.355392 113.588053 112.742348 111.828193 110.855932 109.836242 108.780027 107.698315 106.602153 105.502503 104.410142 103.335560 102.288864 101.279688 100.317104 99.409540 98.564711 97.789545 97.090128 96.471654 95.938378 95.493588 95.139580 94.877641 94.708052 94.630086 94.642027 94.741195 94.923980 95.185882 95.521566 95.924919 96.389115 96.906696 97.469640 98.069456 98.697265 99.343902 100.000000 100.656098 101.302735 101.930544 102.530360 103.093304 103.610885 104.075081 104.478434 104.814118 105.076020 105.258805 105.357973 105.369914 105.291948 105.122359 104.860420 104.506412 104.061622 103.528346 102.909872 102.210455 101.435289 100.590460 99.682896 98.720312 97.711136 96.664440 95.589858 94.497497 93.397847 92.301685 91.219973 90.163758 89.144068 88.171807 87.257652 86.411947 85.644608 84.965018 84.381940 83.903428 83.536739 83.288261 83.163444 83.166736 83.301534 83.570137 83.973715 84.512279 85.184675
114.970401 115.576859 116.048372 116.384060 116.584221 116.650317 116.584948 116.391816 116.075683 115.642311 115.098403 114.451531 113.710060 112.883061 111.980220 111.011746 109.988270 108.920740 107.820323 106.698291 105.565923 104.434393 103.314671 102.217419 101.152897 100.130864 99.160497 98.250305 97.408054 96.640702 95.954334 95.354118 94.844257 94.427958 94.107410 93.883769 93.757155 93.726656 93.790350 93.945324 94.187713 94.512744 94.914786 95.387415 95.923478 96.515172 97.154122 97.831470 98.537965 99.264058 100.000000 100.735942 101.462035 102.168530 102.845878 103.484828 104.076522 104.612585 105.085214 105.487256 105.812287 106.054676 106.209650 106.273344 106.242845 106.116231 105.892590 105.572042 105.155743 104.645882 104.045666 103.359298 102.591946 101.749695 100.839503 99.869136 98.847103 97.782581 96.685329 95.565607 94.434077 93.301709 92.179677 91.079260 90.011730 88.988254 88.019780 87.116939 86.289940 85.548469 84.901597 84.357689 83.924317 83.608184 83.415052 83.349683 83.415779 83.615940 83.951628 84.423141 85.029599
114.992598 115.531052 115.934633 116.202730 116.335911 116.335904 116.205577 115.948892 115.570866 115.077514 114.475782 113.773480 112.979200 112.102228 111.152459 110.140297 109.076555 107.972350 106.839004 105.687931 104.530532 103.378091 102.241670 101.132008 100.059419 99.033705 98.064065 97.159011 96.326296 95.572843 94.904691 94.326937 93.843698 93.458079 93.172148 92.986924 92.902373 92.917419 93.029953 93.236867 93.534087 93.916617 94.378592 94.913345 95.513471 96.170904 96.877002 97.622631 98.398262 99.194063 100.000000 100.805937 101.601738 102.377369 103.122998 103.829096 104.486529 105.086655 105.621408 106.083383 106.465913 106.763133 106.970047 107.082581 107.097627 107.013076 106.827852 106.541921 106.156302 105.673063 105.095309 104.427157 103.673704 102.840989 101.935935 100.966295 99.940581 98.867992 97.758330 96.621909 95.469468 94.312069 93.160996 92.027650 90.923445 89.859703 88.847541 87.897772 87.020800 86.226520 85.524218 84.922486 84.429134 84.051108 83.794423 83.664096 83.664089 83.797270 84.065367 84.468948 85.007402
114.881721 115.350373 115.685410 115.886484 115.954414 115.891171 115.699848 115.384626 114.950722 114.404337 113.752592 113.003451 112.165648 111.248598 110.262305 109.217268 108.124378 106.994819 105.839958 104.671245 103.500099 102.337809 101.195428 100.083670 99.012817 97.992620 97.032220 96.140056 95.323800 94.590285 93.945446 93.394271 92.940759 92.587887 92.337592 92.190752 92.147188 92.205670 92.363936 92.618716 92.965771 93.399936 93.915176 94.504649 95.160772 95.875301 96.639413 97.443794 98.278730 99.134204 100.000000 100.865796 101.721270 102.556206 103.360587 104.124699 104.839228 105.495351 106.084824 106.600064 107.034229 107.381284 107.636064 107.794330 107.852812 107.809248 107.662408 107.412113 107.059241 106.605729 106.054554 105.409715 104.676200 103.859944 102.967780 102.007380 100.987183 99.916330 98.804572 97.662191 96.499901 95.328755 94.160042 93.005181 91.875622 90.782732 89.737695 88.751402 87.834352 86.996549 86.247408 85.595663 85.049278 84.615374 84.300152 84.108829 84.045586 84.113516 84.314590 84.649627 85.118279
114.638751 115.036079 115.302224 115.437094 115.441744 115.318358 115.070220 114.701679 114.218098 113.625800 112.932006 112.144759 111.272849 110.325725 109.313406 108.246386 107.135532 105.991986 104.827059 103.652126 102.478522 101.317436 100.179809 99.076237 98.016872 97.011331 96.068611 95.197009 94.404045 93.696403 93.079865 92.559268 92.138461 91.820272 91.606492 91.497856 91.494049 91.593705 91.794434 92.092840 92.484565 92.964330 93.525992 94.162602 94.866478 95.629281 96.442093 97.295512 98.179736 99.084666 100.000000 100.915334 101.820264 102.704488 103.557907 104.370719 105.133522 105.837398 106.474008 107.035670 107.515435 107.907160 108.205566 108.406295 108.505951 108.502144 108.393508 108.179728 107.861539 107.440732 106.920135 106.303597 105.595955 104.802991 103.931389 102.988669 101.983128 100.923763 99.820191 98.682564 97.521478 96.347874 95.172941 94.008014 92.864468 91.753614 90.686594 89.674275 88.727151 87.855241 87.067994 86.374200 85.781902 85.298321 84.929780 84.681642 84.558256 84.562906 84.697776 84.963921 85.361249
114.265848 114.590602 114.787762 114.857484 114.801038 114.620793 114.320188 113.903692 113.376757 112.745766 112.017968 111.201404 110.304836 109.337657 108.309806 107.231670 106.113994 104.967772 103.804154 102.634336 101.469463 100.320522 99.198245 98.113010 97.074751 96.092862 95.176120 94.332601 93.569611 92.893625 92.310225 91.824055 91.438781 91.157065 90.980536 90.909789 90.944374 91.082812 91.322609 91.660282 92.091399 92.610621 93.211757 93.887822 94.631111 95.433271 96.285379 97.178036 98.101449 99.045532 100.000000 100.954468 101.898551 102.821964 103.714621 104.566729 105.368889 106.112178 106.788243 107.389379 107.908601 108.339718 108.677391 108.917188 109.055626 109.090211 109.019464 108.842935 108.561219 108.175945 107.689775 107.106375 106.430389 105.667399 104.823880 103.907138 102.925249 101.886990 100.801755 99.679478 98.530537 97.365664 96.195846 95.032228 93.886006 92.768330 91.690194 90.662343 89.695164 88.798596 87.982032 87.254234 86.623243 86.096308 85.679812 85.379207 85.198962 85.142516 85.212238 85.409398 85.734152
113.766319 114.017531 114.145862 114.151706 114.036533 113.802868 113.454265 112.995266 112.431360 111.768924 111.015164 110.178045 109.266213 108.288917 107.255921 106.177414 105.063911 103.926162 102.775049 101.621491 100.476336 99.350272 98.253723 97.196759 96.189001 95.239540 94.356852 93.548723 92.822180 92.183433 91.637815 91.189738 90.842659 90.599046 90.460362 90.427054 90.498552 90.673277 90.948661 91.321168 91.786339 92.338826 92.972451 93.680266 94.454614 95.287210 96.169213 97.091316 98.043831 99.016782 100.000000 100.983218 101.956169 102.908684 103.830787 104.712790 105.545386 106.319734 107.027549 107.661174 108.213661 108.678832 109.051339 109.326723 109.501448 109.572946 109.539638 109.400954 109.157341 108.810262 108.362185 107.816567 107.177820 106.451277 105.643148 104.760460 103.810999 102.803241 101.746277 100.649728 99.523664 98.378509 97.224951 96.073838 94.936089 93.822586 92.744079 91.711083 90.733787 89.821955 88.984836 88.231076 87.568640 87.004734 86.545735 86.197132 85.963467 85.848294 85.854138 85.982469 86.233681
113.144600 113.321579 113.381475 113.324912 113.153537 112.870005 112.477946 111.981933 111.387434 110.700759 109.929002 109.079973 108.162125 107.184477 106.156525 105.088162 103.989582 102.871188 101.743498 100.617049 99.502300 98.409537 97.348786 96.329714 95.361548 94.452990 93.612143 92.846432 92.162545 91.566370 91.062947 90.656419 90.350003 90.145956 90.045563 90.049125 90.155957 90.364400 90.671837 91.074717 91.568595 92.148168 92.807335 93.539243 94.336364 95.190557 96.093147 97.035009 98.006650 98.998299 100.000000 101.001701 101.993350 102.964991 103.906853 104.809443 105.663636 106.460757 107.192665 107.851832 108.431405 108.925283 109.328163 109.635600 109.844043 109.950875 109.954437 109.854044 109.649997 109.343581 108.937053 108.433630 107.837455 107.153568 106.387857 105.547010 104.638452 103.670286 102.651214 101.590463 100.497700 99.382951 98.256502 97.128812 96.010418 94.911838 93.843475 92.815523 91.837875 90.920027 90.070998 89.299241 88.612566 88.018067 87.522054 87.129995 86.846463 86.675088 86.618525 86.678421 86.855400
112.406209 112.508544 112.500629 112.383306 112.158383 111.828615 111.397673 110.870114 110.251332 109.547511 108.765567 107.913082 106.998237 106.029733 105.016717 103.968693 102.895439 101.806919 100.713188 99.624307 98.550250 97.500814 96.485528 95.513575 94.593703 93.734150 92.942570 92.225965 91.590621 91.042058 90.584974 90.223211 89.959716 89.796520 89.734719 89.774467 89.914974 90.154517 90.490457 90.919263 91.436547 92.037104 92.714961 93.463433 94.275186 95.142301 96.056352 97.008480 97.989477 98.989867 100.000000 101.010133 102.010523 102.991520 103.943648 104.857699 105.724814 106.536567 107.285039 107.962896 108.563453 109.080737 109.509543 109.845483 110.085026 110.225533 110.265281 110.203480 110.040284 109.776789 109.415026 108.957942 108.409379 107.774035 107.057430 106.265850 105.406297 104.486425 103.514472 102.499186 101.449750 100.375693 99.286812 98.193081 97.104561 96.031307 94.983283 93.970267 93.001763 92.086918 91.234433 90.452489 89.748668 89.129886 88.602327 88.171385 87.841617 87.616694 87.499371 87.491456 87.593791
111.557699 111.585258 111.510375 111.334100 111.058384 110.686052 110.220782 109.667072 109.030191 108.316140 107.531592 106.683831 105.780690 104.830477 103.841901 102.823994 101.786030 100.737439 99.687727 98.646389 97.622821 96.626241 95.665603 94.749518 93.886178 93.083283 92.347972 91.686760 91.105478 90.609225 90.202322 89.888271 89.669728 89.548479 89.525424 89.600568 89.773026 90.041030 90.401943 90.852287 91.387772 92.003339 92.693202 93.450903 94.269370 95.140981 96.057635 97.010820 97.991698 98.991177 100.000000 101.008823 102.008302 102.989180 103.942365 104.859019 105.730630 106.549097 107.306798 107.996661 108.612228 109.147713 109.598057 109.958970 110.226974 110.399432 110.474576 110.451521 110.330272 110.111729 109.797678 109.390775 108.894522 108.313240 107.652028 106.916717 106.113822 105.250482 104.334397 103.373759 102.377179 101.353611 100.312273 99.262561 98.213970 97.176006 96.158099 95.169523 94.219310 93.316169 92.468408 91.683860 90.969809 90.332928 89.779218 89.313948 88.941616 88.665900 88.489625 88.414742 88.442301
110.606602 110.559529 110.418730 110.185453 109.861769 109.450551 108.955450 108.380860 107.731880 107.014272 106.234404 105.399200 104.516071 103.592858 102.637755 101.659238 100.665994 99.666839 98.670640 97.686242 96.722380 95.787611 94.890231 94.038205 93.239098 92.500000 91.827473 91.227486 90.705364 90.265742 89.912522 89.648840 89.477035 89.398632 89.414328 89.523983 89.726624 90.020452 90.402860 90.870452 91.419079 92.043871 92.739281 93.499139 94.316699 95.184704 96.095449 97.040852 98.012521 99.001831 100.000000 100.998169 101.987479 102.959148 103.904551 104.815296 105.683301 106.500861 107.260719 107.956129 108.580921 109.129548 109.597140 109.979548 110.273376 110.476017 110.585672 110.601368 110.522965 110.351160 110.087478 109.734258 109.294636 108.772514 108.172527 107.500000 106.760902 105.961795 105.109769 104.212389 103.277620 102.313758 101.329360 100.333161 99.334006 98.340762 97.362245 96.407142 95.483929 94.600800 93.765596 92.985728 92.268120 91.619140 91.044550 90.549449 90.138231 89.814547 89.581270 89.440471 89.393398
109.561360 109.440073 109.234607 108.946398 108.577620 108.131167 107.610628 107.020258 106.364940 105.650144 104.881879 104.066644 103.211368 102.323349 101.410195 100.479754 99.540047 98.599195 97.665353 96.746631 95.851031 94.986369 94.160213 93.379811 92.652028 91.983287 91.379513 90.846077 90.387750 90.008661 89.712260 89.501286 89.377743 89.342883 89.397192 89.540384 89.771409 90.088454 90.488962 90.969652 91.526551 92.155021 92.849808 93.605077 94.414473 95.271167 96.167921 97.097150 98.050985 99.021344 100.000000 100.978656 101.949015 102.902850 103.832079 104.728833 105.585527 106.394923 107.150192 107.844979 108.473449 109.030348 109.511038 109.911546 110.228591 110.459616 110.602808 110.657117 110.622257 110.498714 110.287740 109.991339 109.612250 109.153923 108.620487 108.016713 107.347972 106.620189 105.839787 105.013631 104.148969 103.253369 102.334647 101.400805 100.459953 99.520246 98.589805 97.676651 96.788632 95.933356 95.118121 94.349856 93.635060 92.979742 92.389372 91.868833 91.422380 91.053602 90.765393 90.559927 90.438640
108.431251 108.236438 107.967742 107.626775 107.215796 106.737697 106.195976 105.594709 104.938522 104.232548 103.482384 102.694048 101.873922 101.028704 100.165348 99.291004 98.412956 97.538561 96.675186 95.830142 95.010620 94.223633 93.475949 92.774035 92.124000 91.531541 91.001891 90.539777 90.149374 89.834268 89.597424 89.441163 89.367134 89.376303 89.468939 89.644618 89.902214 90.239918 90.655246 91.145060 91.705594 92.332487 93.020817 93.765141 94.559545 95.397690 96.272867 97.178054 98.105973 99.049154 100.000000 100.950846 101.894027 102.821946 103.727133 104.602310 105.440455 106.234859 106.979183 107.667513 108.294406 108.854940 109.344754 109.760082 110.097786 110.355382 110.531061 110.623697 110.632866 110.558837 110.402576 110.165732 109.850626 109.460223 108.998109 108.468459 107.876000 107.225965 106.524051 105.776367 104.989380 104.169858 103.324814 102.461439 101.587044 100.708996 99.834652 98.971296 98.126078 97.305952 96.517616 95.767452 95.061478 94.405291 93.804024 93.262303 92.784204 92.373225 92.032258 91.763562 91.568749
107.226305 106.958919 106.628605 106.237140 105.786852 105.280605 104.721778 104.114240 103.462317 102.770763 102.044716 101.289662 100.511384 99.715922 98.909513 98.098550 97.289518 96.488946 95.703350 94.939176 94.202745 93.500200 92.837455 92.220139 91.653549 91.142604 90.691805 90.305188 89.986295 89.738137 89.563171 89.463273 89.439723 89.493191 89.623729 89.830769 90.113127 90.469006 90.896017 91.391189 91.950997 92.571390 93.247821 93.975285 94.748359 95.561246 96.407823 97.281690 98.176223 99.084629 100.000000 100.915371 101.823777 102.718310 103.592177 104.438754 105.251641 106.024715 106.752179 107.428610 108.049003 108.608811 109.103983 109.530994 109.886873 110.169231 110.376271 110.506809 110.560277 110.536727 110.436829 110.261863 110.013705 109.694812 109.308195 108.857396 108.346451 107.779861 107.162545 106.499800 105.797255 105.060824 104.296650 103.511054 102.710482 101.901450 101.090487 100.284078 99.488616 98.710338 97.955284 97.229237 96.537683 95.885760 95.278222 94.719395 94.213148 93.762860 93.371395 93.041081 92.773695
105.957218 105.618473 105.228317 104.788682 104.301948 103.770932 103.198869 102.589386 101.946480 101.274485 100.578040 99.862053 99.131661 98.392193 97.649123 96.908027 96.174541 95.454307 94.752936 94.075953 93.428756 92.816567 92.244390 91.716969 91.238743 90.813813 90.445901 90.138323 89.893952 89.715199 89.603986 89.561731 89.589329 89.687149 89.855021 90.092238 90.397562 90.769225 91.204949 91.701954 92.256984 92.866330 93.525858 94.231039 94.976986 95.758491 96.570068 97.405992 98.260346 99.127069 100.000000 100.872931 101.739654 102.594008 103.429932 104.241509 105.023014 105.768961 106.474142 107.133670 107.743016 108.298046 108.795051 109.230775 109.602438 109.907762 110.144979 110.312851 110.410671 110.438269 110.396014 110.284801 110.106048 109.861677 109.554099 109.186187 108.761257 108.283031 107.755610 107.183433 106.571244 105.924047 105.247064 104.545693 103.825459 103.091973 102.350877 101.607807 100.868339 100.137947 99.421960 98.725515 98.053520 97.410614 96.801131 96.229068 95.698052 95.211318 94.771683 94.381527 94.042782
104.635255 104.226617 103.778550 103.293126 102.772763 102.220212 101.638540 101.031109 100.401554 99.753757 99.091822 98.420040 97.742862 97.064863 96.390707 95.725114 95.072817 94.438530 93.826910 93.242516 92.689775 92.172945 91.696080 91.262994 90.877233 90.542040 90.260330 90.034665 89.867226 89.759800 89.713758 89.730042 89.809157 89.951159 90.155658 90.421813 90.748336 91.133504 91.575162 92.070744 92.617287 93.211452 93.849548 94.527559 95.241171 95.985808 96.756661 97.548725 98.356838 99.175717 100.000000 100.824283 101.643162 102.451275 103.243339 104.014192 104.758829 105.472441 106.150452 106.788548 107.382713 107.929256 108.424838 108.866496 109.251664 109.578187 109.844342 110.048841 110.190843 110.269958 110.286242 110.240200 110.132774 109.965335 109.739670 109.457960 109.122767 108.737006 108.303920 107.827055 107.310225 106.757484 106.173090 105.561470 104.927183 104.274886 103.609293 102.935137 102.257138 101.579960 100.908178 100.246243 99.598446 98.968891 98.361460 97.779788 97.227237 96.706874 96.221450 95.773383 95.364745
103.272149 102.795332 102.291425 101.762630 101.211390 100.640371 100.052453 99.450708 98.838387 98.218891 97.595757 96.972631 96.353241 95.741376 95.140853 94.555496 93.989103 93.445419 92.928110 92.440732 91.986705 91.569288 91.191549 90.856344 90.566291 90.323750 90.130803 89.989234 89.900513 89.865786 89.885857 89.961184 90.091872 90.277666 90.517951 90.811757 91.157755 91.554273 91.999299 92.490496 93.025212 93.600505 94.213153 94.859681 95.536381 96.239341 96.964465 97.707506 98.464096 99.229769 100.000000 100.770231 101.535904 102.292494 103.035535 103.760659 104.463619 105.140319 105.786847 106.399495 106.974788 107.509504 108.000701 108.445727 108.842245 109.188243 109.482049 109.722334 109.908128 110.038816 110.114143 110.134214 110.099487 110.010766 109.869197 109.676250 109.433709 109.143656 108.808451 108.430712 108.013295 107.559268 107.071890 106.554581 106.010897 105.444504 104.859147 104.258624 103.646759 103.027369 102.404243 101.781109 101.161613 100.549292 99.947547 99.359629 98.788610 98.237370 97.708575 97.204668 96.727851
101.879999 101.336957 100.779413 100.209689 99.630238 99.043630 98.452539 97.859730 97.268045 96.680386 96.099700 95.528958 94.971145 94.429232 93.906165 93.404843 92.928099 92.478683 92.059241 91.672300 91.320245 91.005310 90.729552 90.494846 90.302862 90.155054 90.052654 89.996652 89.987793 90.026570 90.113212 90.247686 90.429693 90.658664 90.933764 91.253894 91.617693 92.023551 92.469607 92.953768 93.473713 94.026913 94.610638 95.221976 95.857850 96.515038 97.190186 97.879835 98.580438 99.288378 100.000000 100.711622 101.419562 102.120165 102.809814 103.484962 104.142150 104.778024 105.389362 105.973087 106.526287 107.046232 107.530393 107.976449 108.382307 108.746106 109.066236 109.341336 109.570307 109.752314 109.886788 109.973430 110.012207 110.003348 109.947346 109.844946 109.697138 109.505154 109.270448 108.994690 108.679755 108.327700 107.940759 107.521317 107.071901 106.595157 106.093835 105.570768 105.028855 104.471042 103.900300 103.319614 102.731955 102.140270 101.547461 100.956370 100.369762 99.790311 99.220587 98.663043 98.120001
100.471161 99.864079 99.255221 98.647021 98.041929 97.442406 96.850908 96.269876 95.701730 95.148854 94.613588 94.098214 93.604949 93.135934 92.693221 92.278768 91.894423 91.541921 91.222873 90.938755 90.690904 90.480509 90.308606 90.176070 90.083610 90.031765 90.020903 90.051214 90.122708 90.235220 90.388399 90.581721 90.814479 91.085792 91.394607 91.739701 92.119689 92.533027 92.978019 93.452825 93.955468 94.483846 95.035736 95.608807 96.200632 96.808696 97.430409 98.063117 98.704118 99.350669 100.000000 100.649331 101.295882 101.936883 102.569591 103.191304 103.799368 104.391193 104.964264 105.516154 106.044532 106.547175 107.021981 107.466973 107.880311 108.260299 108.605393 108.914208 109.185521 109.418279 109.611601 109.764780 109.877292 109.948786 109.979097 109.968235 109.916390 109.823930 109.691394 109.519491 109.309096 109.061245 108.777127 108.458079 108.105577 107.721232 107.306779 106.864066 106.395051 105.901786 105.386412 104.851146 104.298270 103.730124 103.149092 102.557594 101.958071 101.352979 100.744779 100.135921 99.528839
99.058142 98.389425 97.731687 97.087461 96.459189 95.849207 95.259743 94.692907 94.150685 93.634931 93.147368 92.689578 92.263003 91.868939 91.508537 91.182801 90.892590 90.638612 90.421434 90.241477 90.099019 89.994201 89.927027 89.897370 89.904973 89.949458 90.030325 90.146959 90.298640 90.484538 90.703729 90.955192 91.237819 91.550421 91.891729 92.260402 92.655035 93.074157 93.516245 93.979720 94.462957 94.964291 95.482015 96.014392 96.559653 97.116003 97.681627 98.254691 98.833348 99.415740 100.000000 100.584260 101.166652 101.745309 102.318373 102.883997 103.440347 103.985608 104.517985 105.035709 105.537043 106.020280 106.483755 106.925843 107.344965 107.739598 108.108271 108.449579 108.762181 109.044808 109.296271 109.515462 109.701360 109.853041 109.969675 110.050542 110.095027 110.102630 110.072973 110.005799 109.900981 109.758523 109.578566 109.361388 109.107410 108.817199 108.491463 108.131061 107.736997 107.310422 106.852632 106.365069 105.849315 105.307093 104.740257 104.150793 103.540811 102.912539 102.268313 101.610575 100.941858
97.653483 96.925750 96.221666 95.543855 94.894739 94.276525 93.691207 93.140552 92.626109 92.149199 91.710922 91.312157 90.953568 90.635606 90.358519 90.122359 89.926991 89.772103 89.657217 89.581699 89.544774 89.545536 89.582964 89.655930 89.763218 89.903533 90.075515 90.277751 90.508789 90.767149 91.051330 91.359827 91.691134 92.043756 92.416217 92.807062 93.214870 93.638253 94.075858 94.526377 94.988542 95.461127 95.942947 96.432861 96.929763 97.432584 97.940286 98.451858 98.966313 99.482680 100.000000 100.517320 101.033687 101.548142 102.059714 102.567416 103.070237 103.567139 104.057053 104.538873 105.011458 105.473623 105.924142 106.361747 106.785130 107.192938 107.583783 107.956244 108.308866 108.640173 108.948670 109.232851 109.491211 109.722249 109.924485 110.096467 110.236782 110.344070 110.417036 110.454464 110.455226 110.418301 110.342783 110.227897 110.073009 109.877641 109.641481 109.364394 109.046432 108.687843 108.289078 107.850801 107.373891 106.859448 106.308793 105.723475 105.105261 104.456145 103.778334 103.074250 102.346517
96.269652 95.485723 94.737918 94.028943 93.361192 92.736738 92.157334 91.624408 91.139066 90.702099 90.313988 89.974911 89.684760 89.443148 89.249428 89.102708 89.001872 88.945595 88.932367 88.960514 89.028216 89.133537 89.274440 89.448813 89.654490 89.889275 90.150959 90.437344 90.746260 91.075582 91.423247 91.787273 92.165764 92.556930 92.959090 93.370685 93.790280 94.216571 94.648385 95.084681 95.524547 95.967198 96.411972 96.858318 97.305792 97.754046 98.202815 98.651907 99.101189 99.550573 100.000000 100.449427 100.898811 101.348093 101.797185 102.245954 102.694208 103.141682 103.588028 104.032802 104.475453 104.915319 105.351615 105.783429 106.209720 106.629315 107.040910 107.443070 107.834236 108.212727 108.576753 108.924418 109.253740 109.562656 109.849041 110.110725 110.345510 110.551187 110.725560 110.866463 110.971784 111.039486 111.067633 111.054405 110.998128 110.897292 110.750572 110.556852 110.315240 110.025089 109.686012 109.297901 108.860934 108.375592 107.842666 107.263262 106.638808 105.971057 105.262082 104.514277 103.730348
94.918931 94.081820 93.293001 92.555255 91.870943 91.242001 90.669940 90.155848 89.700399 89.303855 88.966089 88.686591 88.464491 88.298582 88.187337 88.128941 88.121312 88.162136 88.248892 88.378885 88.549277 88.757120 88.999386 89.272999 89.574869 89.901916 90.251105 90.619468 91.004137 91.402358 91.811524 92.229184 92.653068 93.081098 93.511398 93.942308 94.372385 94.800413 95.225394 95.646555 96.063337 96.475392 96.882569 97.284903 97.682601 98.076023 98.465667 98.852146 99.236167 99.618509 100.000000 100.381491 100.763833 101.147854 101.534333 101.923977 102.317399 102.715097 103.117431 103.524608 103.936663 104.353445 104.774606 105.199587 105.627615 106.057692 106.488602 106.918902 107.346932 107.770816 108.188476 108.597642 108.995863 109.380532 109.748895 110.098084 110.425131 110.727001 111.000614 111.242880 111.450723 111.621115 111.751108 111.837864 111.878688 111.871059 111.812663 111.701418 111.535509 111.313409 111.033911 110.696145 110.299601 109.844152 109.330060 108.757999 108.129057 107.444745 106.706999 105.918180 105.081069
93.613311 92.726209 91.899157 91.135001 90.436064 89.804144 89.240515 88.745930 88.320638 87.964388 87.676458 87.455669 87.300413 87.208681 87.178095 87.205942 87.289205 87.424609 87.608654 87.837655 88.107788 88.415125 88.755679 89.125442 89.520426 89.936699 90.370425 90.817897 91.275567 91.740079 92.208295 92.677319 93.144518 93.607536 94.064315 94.513098 94.952440 95.381208 95.798582 96.204050 96.597400 96.978708 97.348323 97.706852 98.055134 98.394222 98.725355 99.049928 99.369466 99.685594 100.000000 100.314406 100.630534 100.950072 101.274645 101.605778 101.944866 102.293148 102.651677 103.021292 103.402600 103.795950 104.201418 104.618792 105.047560 105.486902 105.935685 106.392464 106.855482 107.322681 107.791705 108.259921 108.724433 109.182103 109.629575 110.063301 110.479574 110.874558 111.244321 111.584875 111.892212 112.162345 112.391346 112.575391 112.710795 112.794058 112.821905 112.791319 112.699587 112.544331 112.323542 112.035612 111.679362 111.254070 110.759485 110.195856 109.563936 108.864999 108.100843 107.273791 106.386689
92.364379 91.430647 90.568208 89.779965 89.068202 88.434578 87.880135 87.405304 87.009920 86.693240 86.453968 86.290280 86.199858 86.179926 86.227285 86.338360 86.509238 86.735723 87.013373 87.337557 87.703504 88.106348 88.541182 89.003105 89.487272 89.988935 90.503491 91.026524 91.553839 92.081504 92.605875 93.123629 93.631788 94.127735 94.609237 95.074448 95.521921 95.950610 96.359864 96.749428 97.119421 97.470331 97.802991 98.118554 98.418474 98.704466 98.978483 99.242675 99.499354 99.750957 100.000000 100.249043 100.500646 100.757325 101.021517 101.295534 101.581526 101.881446 102.197009 102.529669 102.880579 103.250572 103.640136 104.049390 104.478079 104.925552 105.390763 105.872265 106.368212 106.876371 107.394125 107.918496 108.446161 108.973476 109.496509 110.011065 110.512728 110.996895 111.458818 111.893652 112.296496 112.662443 112.986627 113.264277 113.490762 113.661640 113.772715 113.820074 113.800142 113.709720 113.546032 113.306760 112.990080 112.594696 112.119865 111.565422 110.931798 110.220035 109.431792 108.569353 107.635621
91.183221 90.206378 89.311456 88.501410 87.778480 87.144193 86.599367 86.144124 85.777907 85.499500 85.307062 85.198158 85.169793 85.218463 85.340190 85.530582 85.784877 86.098002 86.464626 86.879221 87.336117 87.829560 88.353774 88.903012 89.471615 90.054064 90.645033 91.239433 91.832461 92.419635 92.996837 93.560343 94.106847 94.633488 95.137868 95.618060 96.072617 96.500577 96.901455 97.275235 97.622359 97.943704 98.240562 98.514612 98.767886 99.002734 99.221786 99.427910 99.624165 99.813760 100.000000 100.186240 100.375835 100.572090 100.778214 100.997266 101.232114 101.485388 101.759438 102.056296 102.377641 102.724765 103.098545 103.499423 103.927383 104.381940 104.862132 105.366512 105.893153 106.439657 107.003163 107.580365 108.167539 108.760567 109.354967 109.945936 110.528385 111.096988 111.646226 112.170440 112.663883 113.120779 113.535374 113.901998 114.215123 114.469418 114.659810 114.781537 114.830207 114.801842 114.692938 114.500500 114.222093 113.855876 113.400633 112.855807 112.221520 111.498590 110.688544 109.793622 108.816779
90.080322 89.064030 88.139580 87.309970 86.577400 85.943269 85.408182 84.971970 84.633704 84.391729 84.243690 84.186576 84.216762 84.330058 84.521759 84.786708 85.119345 85.513781 85.963850 86.463186 87.005278 87.583543 88.191390 88.822283 89.469804 90.127713 90.790007 91.450970 92.105229 92.747794 93.374103 93.980055 94.562043 95.116979 95.642311 96.136037 96.596716 97.023463 97.415948 97.774386 98.099518 98.392590 98.655325 98.889894 99.098872 99.285206 99.452161 99.603276 99.742315 99.873208 100.000000 100.126792 100.257685 100.396724 100.547839 100.714794 100.901128 101.110106 101.344675 101.607410 101.900482 102.225614 102.584052 102.976537 103.403284 103.863963 104.357689 104.883021 105.437957 106.019945 106.625897 107.252206 107.894771 108.549030 109.209993 109.872287 110.530196 111.177717 111.808610 112.416457 112.994722 113.536814 114.036150 114.486219 114.880655 115.213292 115.478241 115.669942 115.783238 115.813424 115.756310 115.608271 115.366296 115.028030 114.591818 114.056731 113.422600 112.690030 111.860420 110.935970 109.919678
89.065471 88.013523 87.062544 86.215570 85.474759 84.841390 84.315871 83.897762 83.585792 83.377894 83.271242 83.262294 83.346840 83.520059 83.776575 84.110523 84.515611 84.985194 85.512340 86.089907 86.710612 87.367107 88.052052 88.758182 89.478382 90.205746 90.933650 91.655802 92.366304 93.059697 93.731012 94.375804 94.990188 95.570866 96.115149 96.620967 97.086883 97.512087 97.896394 98.240231 98.544617 98.811140 99.041921 99.239585 99.407214 99.548299 99.666697 99.766567 99.852319 99.928555 100.000000 100.071445 100.147681 100.233433 100.333303 100.451701 100.592786 100.760415 100.958079 101.188860 101.455383 101.759769 102.103606 102.487913 102.913117 103.379033 103.884851 104.429134 105.009812 105.624196 106.268988 106.940303 107.633696 108.344198 109.066350 109.794254 110.521618 111.241818 111.947948 112.632893 113.289388 113.910093 114.487660 115.014806 115.484389 115.889477 116.223425 116.479941 116.653160 116.737706 116.728758 116.622106 116.414208 116.102238 115.684129 115.158610 114.525241 113.784430 112.937456 111.986477 110.934529
88.147675 87.063985 86.089514 85.227333 84.479560 83.847362 83.330970 82.929693 82.641952 82.465305 82.396498 82.431506 82.565591 82.793357 83.108822 83.505479 83.976371 84.514171 85.111250 85.759766 86.451737 87.179121 87.933900 88.708151 89.494125 90.284318 91.071542 91.848984 92.610270 93.349521 94.061398 94.741144 95.384626 95.988357 96.549522 97.065994 97.536338 97.959814 98.336370 98.666625 98.951853 99.193949 99.395400 99.559241 99.689012 99.788704 99.862705 99.915740 99.952806 99.979111 100.000000 100.020889 100.047194 100.084260 100.137295 100.211296 100.310988 100.440759 100.604600 100.806051 101.048147 101.333375 101.663630 102.040186 102.463662 102.934006 103.450478 104.011643 104.615374 105.258856 105.938602 106.650479 107.389730 108.151016 108.928458 109.715682 110.505875 111.291849 112.066100 112.820879 113.548263 114.240234 114.888750 115.485829 116.023629 116.494521 116.891178 117.206643 117.434409 117.568494 117.603502 117.534695 117.358048 117.070307 116.669030 116.152638 115.520440 114.772667 113.910486 112.936015 111.852325
87.335081 86.223666 85.228774 84.353504 83.599936 82.969140 82.461184 82.075159 81.809207 81.660556 81.625569 81.699795 81.878024 82.154354 82.522261 82.974671 83.504038 84.102428 84.761597 85.473080 86.228275 87.018529 87.835219 88.669842 89.514087 90.359920 91.199652 92.026010 92.832201 93.611971 94.359654 95.070220 95.739314 96.363283 96.939203 97.464893 97.938925 98.360621 98.730045 99.047991 99.315956 99.536113 99.711269 99.844827 99.940732 100.003418 100.037747 100.048945 100.042531 100.024251 100.000000 99.975749 99.957469 99.951055 99.962253 99.996582 100.059268 100.155173 100.288731 100.463887 100.684044 100.952009 101.269955 101.639379 102.061075 102.535107 103.060797 103.636717 104.260686 104.929780 105.640346 106.388029 107.167799 107.973990 108.800348 109.640080 110.485913 111.330158 112.164781 112.981471 113.771725 114.526920 115.238403 115.897572 116.495962 117.025329 117.477739 117.845646 118.121976 118.300205 118.374431 118.339444 118.190793 117.924841 117.538816 117.030860 116.400064 115.646496 114.771226 113.776334 112.664919
86.634902 85.499870 84.487655 83.601377 82.843084 82.213758 81.713330 81.340698 81.093764 80.969471 80.963853 81.072087 81.288558 81.606927 82.020203 82.520820 83.100727 83.751464 84.464258 85.230106 86.039872 86.884374 87.754471 88.641156 89.535638 90.429421 91.314388 92.182870 93.027711 93.842334 94.620793 95.357823 96.048877 96.690159 97.278653 97.812134 98.289176 98.709156 99.072242 99.379377 99.632251 99.833277 99.985540 100.092759 100.159232 100.189775 100.189658 100.164539 100.120390 100.063420 100.000000 99.936580 99.879610 99.835461 99.810342 99.810225 99.840768 99.907241 100.014460 100.166723 100.367749 100.620623 100.927758 101.290844 101.710824 102.187866 102.721347 103.309841 103.951123 104.642177 105.379207 106.157666 106.972289 107.817130 108.685612 109.570579 110.464362 111.358844 112.245529 113.115626 113.960128 114.769894 115.535742 116.248536 116.899273 117.479180 117.979797 118.393073 118.711442 118.927913 119.036147 119.030529 118.906236 118.659302 118.286670 117.786242 117.156916 116.398623 115.512345 114.500130 113.365098
86.053353 84.898892 83.872473 82.977235 82.215199 81.587273 81.093271 80.731934 80.500962 80.397060 80.415988 80.552616 80.800990 81.154407 81.605487 82.146259 82.768247 83.462557 84.219973 85.031050 85.886204 86.775815 87.690311 88.620267 89.556490 90.490106 91.412639 92.316089 93.193002 94.036533 94.840503 95.599450 96.308669 96.964248 97.563091 98.102936 98.582365 99.000797 99.358488 99.656503 99.896697 100.081678 100.214767 100.299945 100.341802 100.345472 100.316567 100.261103 100.185428 100.096139 100.000000 99.903861 99.814572 99.738897 99.683433 99.654528 99.658198 99.700055 99.785233 99.918322 100.103303 100.343497 100.641512 100.999203 101.417635 101.897064 102.436909 103.035752 103.691331 104.400550 105.159497 105.963467 106.806998 107.683911 108.587361 109.509894 110.443510 111.379733 112.309689 113.224185 114.113796 114.968950 115.780027 116.537443 117.231753 117.853741 118.394513 118.845593 119.199010 119.447384 119.584012 119.602940 119.499038 119.268066 118.906729 118.412727 117.784801 117.022765 116.127527 115.101108 113.946647
85.595595 84.425955 83.388472 82.486295 81.721425 81.094712 80.605877 80.253536 80.035231 79.947479 79.985824 80.144892 80.418465 80.799550 81.280463 81.852913 82.508089 83.236756 84.029349 84.876072 85.766992 86.692141 87.641610 88.605644 89.574735 90.539708 91.491806 92.422771 93.324912 94.191172 95.015190 95.791349 96.514821 97.181600 97.788530 98.333322 98.814558 99.231696 99.585058 99.875808 100.105929 100.278187 100.396084 100.463810 100.486185 100.468594 100.416917 100.337455 100.236852 100.122008 100.000000 99.877992 99.763148 99.662545 99.583083 99.531406 99.513815 99.536190 99.603916 99.721813 99.894071 100.124192 100.414942 100.768304 101.185442 101.666678 102.211470 102.818400 103.485179 104.208651 104.984810 105.808828 106.675088 107.577229 108.508194 109.460292 110.425265 111.394356 112.358390 113.307859 114.233008 115.123928 115.970651 116.763244 117.491911 118.147087 118.719537 119.200450 119.581535 119.855108 120.014176 120.052521 119.964769 119.746464 119.394123 118.905288 118.278575 117.513705 116.611528 115.574045 114.404405
85.265691 84.085175 83.039777 82.132661 81.365808 80.740029 80.254976 79.909174 79.700053 79.623994 79.676383 79.851672 80.143452 80.544521 81.046976 81.642293 82.321422 83.074881 83.892854 84.765291 85.682009 86.632788 87.607475 88.596078 89.588862 90.576436 91.549840 92.500629 93.420941 94.303568 95.142017 95.930560 96.664280 97.339103 97.951831 98.500152 98.982653 99.398818 99.749016 100.034485 100.257298 100.420335 100.527230 100.582324 100.590602 100.557630 100.489483 100.392666 100.274035 100.140713 100.000000 99.859287 99.725965 99.607334 99.510517 99.442370 99.409398 99.417676 99.472770 99.579665 99.742702 99.965515 100.250984 100.601182 101.017347 101.499848 102.048169 102.660897 103.335720 104.069440 104.857983 105.696432 106.579059 107.499371 108.450160 109.423564 110.411138 111.403922 112.392525 113.367212 114.317991 115.234709 116.107146 116.925119 117.678578 118.357707 118.953024 119.455479 119.856548 120.148328 120.323617 120.376006 120.299947 120.090826 119.745024 119.259971 118.634192 117.867339 116.960223 115.914825 114.734309
85.066571 83.879513 82.829364 81.919291 81.151265 80.526073 80.043326 79.701494 79.497938 79.428957 79.489843 79.674942 79.977729 80.390878 80.906351 81.515485 82.209085 82.977521 83.810823 84.698791 85.631087 86.597342 87.587256 88.590693 89.597779 90.598995 91.585258 92.548010 93.479285 94.371786 95.218939 96.014948 96.754843 97.434511 98.050725 98.601162 99.084412 99.499973 99.848245 100.130507 100.348890 100.506341 100.606575 100.654022 100.653769 100.611491 100.533379 100.426063 100.296527 100.152028 100.000000 99.847972 99.703473 99.573937 99.466621 99.388509 99.346231 99.345978 99.393425 99.493659 99.651110 99.869493 100.151755 100.500027 100.915588 101.398838 101.949275 102.565489 103.245157 103.985052 104.781061 105.628214 106.520715 107.451990 108.414742 109.401005 110.402221 111.409307 112.412744 113.402658 114.368913 115.301209 116.189177 117.022479 117.790915 118.484515 119.093649 119.609122 120.022271 120.325058 120.510157 120.571043 120.502062 120.298506 119.956674 119.473927 118.848735 118.080709 117.170636 116.120487 114.933429
85.000000 83.810760 82.759027 81.847968 81.079555 80.454562 79.972590 79.632089 79.430397 79.363786 79.427516 79.615899 79.922369 80.339559 80.859387 81.473143 82.171584 82.945028 83.783457 84.676619 85.614125 86.585555 87.580560 88.588957 89.600825 90.606602 91.597164 92.563915 93.498855 94.394656 95.244717 96.043222 96.785179 97.466465 98.083842 98.634985 99.118483 99.533839 99.881464 100.162651 100.379550 100.535130 100.633133 100.678020 100.674911 100.629518 100.548071 100.437240 100.304055 100.155814 100.000000 99.844186 99.695945 99.562760 99.451929 99.370482 99.325089 99.321980 99.366867 99.464870 99.620450 99.837349 100.118536 100.466161 100.881517 101.365015 101.916158 102.533535 103.214821 103.956778 104.755283 105.605344 106.501145 107.436085 108.402836 109.393398 110.399175 111.411043 112.419440 113.414445 114.385875 115.323381 116.216543 117.054972 117.828416 118.526857 119.140613 119.660441 120.077631 120.384101 120.572484 120.636214 120.569603 120.367911 120.027410 119.545438 118.920445 118.152032 117.240973 116.189240 115.000000
85.066571 83.879513 82.829364 81.919291 81.151265 80.526073 80.043326 79.701494 79.497938 79.428957 79.489843 79.674942 79.977729 80.390878 80.906351 81.515485 82.209085 82.977521 83.810823 84.698791 85.631087 86.597342 87.587256 88.590693 89.597779 90.598995 91.585258 92.548010 93.479285 94.371786 95.218939 96.014948 96.754843 97.434511 98.050725 98.601162 99.084412 99.499973 99.848245 100.130507 100.348890 100.506341 100.606575 100.654022 100.653769 100.611491 100.533379 100.426063 100.296527 100.152028 100.000000 99.847972 99.703473 99.573937 99.466621 99.388509 99.346231 99.345978 99.393425 99.493659 99.651110 99.869493 100.151755 100.500027 100.915588 101.398838 101.949275 102.565489 103.245157 103.985052 104.781061 105.628214 106.520715 107.451990 108.414742 109.401005 110.402221 111.409307 112.412744 113.402658 114.368913 115.301209 116.189177 117.022479 117.790915 118.484515 119.093649 119.609122 120.022271 120.325058 120.510157 120.571043 120.502062 120.298506 119.956674 119.473927 118.848735 118.080709 117.170636 116.120487 114.933429
85.265691 84.085175 83.039777 82.132661 81.365808 80.740029 80.254976 79.909174 79.700053 79.623994 79.676383 79.851672 80.143452 80.544521 81.046976 81.642293 82.321422 83.074881 83.892854 84.765291 85.682009 86.632788 87.607475 88.596078 89.588862 90.576436 91.549840 92.500629 93.420941 94.303568 95.142017 95.930560 96.664280 97.339103 97.951831 98.500152 98.982653 99.398818 99.749016 100.034485 100.257298 100.420335 100.527230 100.582324 100.590602 100.557630 100.489483 100.392666 100.274035 100.140713 100.000000 99.859287 99.725965 99.607334 99.510517 99.442370 99.409398 99.417676 99.472770 99.579665 99.742702 99.965515 100.250984 100.601182 101.017347 101.499848 102.048169 102.660897 103.335720 104.069440 104.857983 105.696432 106.579059 107.499371 108.450160 109.423564 110.411138 111.403922 112.392525 113.367212 114.317991 115.234709 116.107146 116.925119 117.678578 118.357707 118.953024 119.455479 119.856548 120.148328 120.323617 120.376006 120.299947 120.090826 119.745024 119.259971 118.634192 117.867339 116.960223 115.914825 114.734309
85.595595 84.425955 83.388472 82.486295 81.721425 81.094712 80.605877 80.253536 80.035231 79.947479 79.985824 80.144892 80.418465 80.799550 81.280463 81.852913 82.508089 83.236756 84.029349 84.876072 85.766992 86.692141 87.641610 88.605644 89.574735 90.539708 91.491806 92.422771 93.324912 94.191172 95.015190 95.791349 96.514821 97.181600 97.788530 98.333322 98.814558 99.231696 99.585058 99.875808 100.105929 100.278187 100.396084 100.463810 100.486185 100.468594 100.416917 100.337455 100.236852 100.122008 100.000000 99.877992 99.763148 99.662545 99.583083 99.531406 99.513815 99.536190 99.603916 99.721813 99.894071 100.124192 100.414942 100.768304 101.185442 101.666678 102.211470 102.818400 103.485179 104.208651 104.984810 105.808828 106.675088 107.577229 108.508194 109.460292 110.425265 111.394356 112.358390 113.307859 114.233008 115.123928 115.970651 116.763244 117.491911 118.147087 118.719537 119.200450 119.581535 119.855108 120.014176 120.052521 119.964769 119.746464 119.394123 118.905288 118.278575 117.513705 116.611528 115.574045 114.404405
86.053353 84.898892 83.872473 82.977235 82.215199 81.587273 81.093271 80.731934 80.500962 80.397060 80.415988 80.552616 80.800990 81.154407 81.605487 82.146259 82.768247 83.462557 84.219973 85.031050 85.886204 86.775815 87.690311 88.620267 89.556490 90.490106 91.412639 92.316089 93.193002 94.036533 94.840503 95.599450 96.308669 96.964248 97.563091 98.102936 98.582365 99.000797 99.358488 99.656503 99.896697 100.081678 100.214767 100.299945 100.341802 100.345472 100.316567 100.261103 100.185428 100.096139 100.000000 99.903861 99.814572 99.738897 99.683433 99.654528 99.658198 99.700055 99.785233 99.918322 100.103303 100.343497 100.641512 100.999203 101.417635 101.897064 102.436909 103.035752 103.691331 104.400550 105.159497 105.963467 106.806998 107.683911 108.587361 109.509894 110.443510 111.379733 112.309689 113.224185 114.113796 114.968950 115.780027 116.537443 117.231753 117.853741 118.394513 118.845593 119.199010 119.447384 119.584012 119.602940 119.499038 119.268066 118.906729 118.412727 117.784801 117.022765 116.127527 115.101108 113.946647
86.634902 85.499870 84.487655 83.601377 82.843084 82.213758 81.713330 81.340698 81.093764 80.969471 80.963853 81.072087 81.288558 81.606927 82.020203 82.520820 83.100727 83.751464 84.464258 85.230106 86.039872 86.884374 87.754471 88.641156 89.535638 90.429421 91.314388 92.182870 93.027711 93.842334 94.620793 95.357823 96.048877 96.690159 97.278653 97.812134 98.289176 98.709156 99.072242 99.379377 99.632251 99.833277 99.985540 100.092759 100.159232 100.189775 100.189658 100.164539 100.120390 100.063420 100.000000 99.936580 99.879610 99.835461 99.810342 99.810225 99.840768 99.907241 100.014460 100.166723 100.367749 100.620623 100.927758 101.290844 101.710824 102.187866 102.721347 103.309841 103.951123 104.642177 105.379207 106.157666 106.972289 107.817130 108.685612 109.570579 110.464362 111.358844 112.245529 113.115626 113.960128 114.769894 115.535742 116.248536 116.899273 117.479180 117.979797 118.393073 118.711442 118.927913 119.036147 119.030529 118.906236 118.659302 118.286670 117.786242 117.156916 116.398623 115.512345 114.500130 113.365098
87.335081 86.223666 85.228774 84.353504 83.599936 82.969140 82.461184 82.075159 81.809207 81.660556 81.625569 81.699795 81.878024 82.154354 82.522261 82.974671 83.504038 84.102428 84.761597 85.473080 86.228275 87.018529 87.835219 88.669842 89.514087 90.359920 91.199652 92.026010 92.832201 93.611971 94.359654 95.070220 95.739314 96.363283 96.939203 97.464893 97.938925 98.360621 98.730045 99.047991 99.315956 99.536113 99.711269 99.844827 99.940732 100.003418 100.037747 100.048945 100.042531 100.024251 100.000000 99.975749 99.957469 99.951055 99.962253 99.996582 100.059268 100.155173 100.288731 100.463887 100.684044 100.952009 101.269955 101.639379 102.061075 102.535107 103.060797 103.636717 104.260686 104.929780 105.640346 106.388029 107.167799 107.973990 108.800348 109.640080 110.485913 111.330158 112.164781 112.981471 113.771725 114.526920 115.238403 115.897572 116.495962 117.025329 117.477739 117.845646 118.121976 118.300205 118.374431 118.339444 118.190793 117.924841 117.538816 117.030860 116.400064 115.646496 114.771226 113.776334 112.664919
88.147675 87.063985 86.089514 85.227333 84.479560 83.847362 83.330970 82.929693 82.641952 82.465305 82.396498 82.431506 82.565591 82.793357 83.108822 83.505479 83.976371 84.514171 85.111250 85.759766 86.451737 87.179121 87.933900 88.708151 89.494125 90.284318 91.071542 91.848984 92.610270 93.349521 94.061398 94.741144 95.384626 95.988357 96.549522 97.065994 97.536338 97.959814 98.336370 98.666625 98.951853 99.193949 99.395400 99.559241 99.689012 99.788704 99.862705 99.915740 99.952806 99.979111 100.000000 100.020889 100.047194 100.084260 100.137295 100.211296 100.310988 100.440759 100.604600 100.806051 101.048147 101.333375 101.663630 102.040186 102.463662 102.934006 103.450478 104.011643 104.615374 105.258856 105.938602 106.650479 107.389730 108.151016 108.928458 109.715682 110.505875 111.291849 112.066100 112.820879 113.548263 114.240234 114.888750 115.485829 116.023629 116.494521 116.891178 117.206643 117.434409 117.568494 117.603502 117.534695 117.358048 117.070307 116.669030 116.152638 115.520440 114.772667 113.910486 112.936015 111.852325
89.065471 88.013523 87.062544 86.215570 85.474759 84.841390 84.315871 83.897762 83.585792 83.377894 83.271242 83.262294 83.346840 83.520059 83.776575 84.110523 84.515611 84.985194 85.512340 86.089907 86.710612 87.367107 88.052052 88.758182 89.478382 90.205746 90.933650 91.655802 92.366304 93.059697 93.731012 94.375804 94.990188 95.570866 96.115149 96.620967 97.086883 97.512087 97.896394 98.240231 98.544617 98.811140 99.041921 99.239585 99.407214 99.548299 99.666697 99.766567 99.852319 99.928555 100.000000 100.071445 100.147681 100.233433 100.333303 100.451701 100.592786 100.760415 100.958079 101.188860 101.455383 101.759769 102.103606 102.487913 102.913117 103.379033 103.884851 104.429134 105.009812 105.624196 106.268988 106.940303 107.633696 108.344198 109.066350 109.794254 110.521618 111.241818 111.947948 112.632893 113.289388 113.910093 114.487660 115.014806 115.484389 115.889477 116.223425 116.479941 116.653160 116.737706 116.728758 116.622106 116.414208 116.102238 115.684129 115.158610 114.525241 113.784430 112.937456 111.986477 110.934529
90.080322 89.064030 88.139580 87.309970 86.577400 85.943269 85.408182 84.971970 84.633704 84.391729 84.243690 84.186576 84.216762 84.330058 84.521759 84.786708 85.119345 85.513781 85.963850 86.463186 87.005278 87.583543 88.191390 88.822283 89.469804 90.127713 90.790007 91.450970 92.105229 92.747794 93.374103 93.980055 94.562043 95.116979 95.642311 96.136037 96.596716 97.023463 97.415948 97.774386 98.099518 98.392590 98.655325 98.889894 99.098872 99.285206 99.452161 99.603276 99.742315 99.873208 100.000000 100.126792 100.257685 100.396724 100.547839 100.714794 100.901128 101.110106 101.344675 101.607410 101.900482 102.225614 102.584052 102.976537 103.403284 103.863963 104.357689 104.883021 105.437957 106.019945 106.625897 107.252206 107.894771 108.549030 109.209993 109.872287 110.530196 111.177717 111.808610 112.416457 112.994722 113.536814 114.036150 114.486219 114.880655 115.213292 115.478241 115.669942 115.783238 115.813424 115.756310 115.608271 115.366296 115.028030 114.591818 114.056731 113.422600 112.690030 111.860420 110.935970 109.919678
91.183221 90.206378 89.311456 88.501410 87.778480 87.144193 86.599367 86.144124 85.777907 85.499500 85.307062 85.198158 85.169793 85.218463 85.340190 85.530582 85.784877 86.098002 86.464626 86.879221 87.336117 87.829560 88.353774 88.903012 89.471615 90.054064 90.645033 91.239433 91.832461 92.419635 92.996837 93.560343 94.106847 94.633488 95.137868 95.618060 96.072617 96.500577 96.901455 97.275235 97.622359 97.943704 98.240562 98.514612 98.767886 99.002734 99.221786 99.427910 99.624165 99.813760 100.000000 100.186240 100.375835 100.572090 100.778214 100.997266 101.232114 101.485388 101.759438 102.056296 102.377641 102.724765 103.098545 103.499423 103.927383 104.381940 104.862132 105.366512 105.893153 106.439657 107.003163 107.580365 108.167539 108.760567 109.354967 109.945936 110.528385 111.096988 111.646226 112.170440 112.663883 113.120779 113.535374 113.901998 114.215123 114.469418 114.659810 114.781537 114.830207 114.801842 114.692938 114.500500 114.222093 113.855876 113.400633 112.855807 112.221520 111.498590 110.688544 109.793622 108.816779
92.364379 91.430647 90.568208 89.779965 89.068202 88.434578 87.880135 87.405304 87.009920 86.693240 86.453968 86.290280 86.199858 86.179926 86.227285 86.338360 86.509238 86.735723 87.013373 87.337557 87.703504 88.106348 88.541182 89.003105 89.487272 89.988935 90.503491 91.026524 91.553839 92.081504 92.605875 93.123629 93.631788 94.127735 94.609237 95.074448 95.521921 95.950610 96.359864 96.749428 97.119421 97.470331 97.802991 98.118554 98.418474 98.704466 98.978483 99.242675 99.499354 99.750957 100.000000 100.249043 100.500646 100.757325 101.021517 101.295534 101.581526 101.881446 102.197009 102.529669 102.880579 103.250572 103.640136 104.049390 104.478079 104.925552 105.390763 105.872265 106.368212 106.876371 107.394125 107.918496 108.446161 108.973476 109.496509 110.011065 110.512728 110.996895 111.458818 111.893652 112.296496 112.662443 112.986627 113.264277 113.490762 113.661640 113.772715 113.820074 113.800142 113.709720 113.546032 113.306760 112.990080 112.594696 112.119865 111.565422 110.931798 110.220035 109.431792 108.569353 107.635621
93.613311 92.726209 91.899157 91.135001 90.436064 89.804144 89.240515 88.745930 88.320638 87.964388 87.676458 87.455669 87.300413 87.208681 87.178095 87.205942 87.289205 87.424609 87.608654 87.837655 88.107788 88.415125 88.755679 89.125442 89.520426 89.936699 90.370425 90.817897 91.275567 91.740079 92.208295 92.677319 93.144518 93.607536 94.064315 94.513098 94.952440 95.381208 95.798582 96.204050 96.597400 96.978708 97.348323 97.706852 98.055134 98.394222 98.725355 99.049928 99.369466 99.685594 100.000000 100.314406 100.630534 100.950072 101.274645 101.605778 101.944866 102.293148 102.651677 103.021292 103.402600 103.795950 104.201418 104.618792 105.047560 105.486902 105.935685 106.392464 106.855482 107.322681 107.791705 108.259921 108.724433 109.182103 109.629575 110.063301 110.479574 110.874558 111.244321 111.584875 111.892212 112.162345 112.391346 112.575391 112.710795 112.794058 112.821905 112.791319 112.699587 112.544331 112.323542 112.035612 111.679362 111.254070 110.759485 110.195856 109.563936 108.864999 108.100843 107.273791 106.386689
94.918931 94.081820 93.293001 92.555255 91.870943 91.242001 90.669940 90.155848 89.700399 89.303855 88.966089 88.686591 88.464491 88.298582 88.187337 88.128941 88.121312 88.162136 88.248892 88.378885 88.549277 88.757120 88.999386 89.272999 89.574869 89.901916 90.251105 90.619468 91.004137 91.402358 91.811524 92.229184 92.653068 93.081098 93.511398 93.942308 94.372385 94.800413 95.225394 95.646555 96.063337 96.475392 96.882569 97.284903 97.682601 98.076023 98.465667 98.852146 99.236167 99.618509 100.000000 100.381491 100.763833 101.147854 101.534333 101.923977 102.317399 102.715097 103.117431 103.524608 103.936663 104.353445 104.774606 105.199587 105.627615 106.057692 106.488602 106.918902 107.346932 107.770816 108.188476 108.597642 108.995863 109.380532 109.748895 110.098084 110.425131 110.727001 111.000614 111.242880 111.450723 111.621115 111.751108 111.837864 111.878688 111.871059 111.812663 111.701418 111.535509 111.313409 111.033911 110.696145 110.299601 109.844152 109.330060 108.757999 108.129057 107.444745 106.706999 105.918180 105.081069
96.269652 95.485723 94.737918 94.028943 93.361192 92.736738 92.157334 91.624408 91.139066 90.702099 90.313988 89.974911 89.684760 89.443148 89.249428 89.102708 89.001872 88.945595 88.932367 88.960514 89.028216 89.133537 89.274440 89.448813 89.654490 89.889275 90.150959 90.437344 90.746260 91.075582 91.423247 91.787273 92.165764 92.556930 92.959090 93.370685 93.790280 94.216571 94.648385 95.084681 95.524547 95.967198 96.411972 96.858318 97.305792 97.754046 98.202815 98.651907 99.101189 99.550573 100.000000 100.449427 100.898811 101.348093 101.797185 102.245954 102.694208 103.141682 103.588028 104.032802 104.475453 104.915319 105.351615 105.783429 106.209720 106.629315 107.040910 107.443070 107.834236 108.212727 108.576753 108.924418 109.253740 109.562656 109.849041 110.110725 110.345510 110.551187 110.725560 110.866463 110.971784 111.039486 111.067633 111.054405 110.998128 110.897292 110.750572 110.556852 110.315240 110.025089 109.686012 109.297901 108.860934 108.375592 107.842666 107.263262 106.638808 105.971057 105.262082 104.514277 103.730348
97.653483 96.925750 96.221666 95.543855 94.894739 94.276525 93.691207 93.140552 92.626109 92.149199 91.710922 91.312157 90.953568 90.635606 90.358519 90.122359 89.926991 89.772103 89.657217 89.581699 89.544774 89.545536 89.582964 89.655930 89.763218 89.903533 90.075515 90.277751 90.508789 90.767149 91.051330 91.359827 91.691134 92.043756 92.416217 92.807062 93.214870 93.638253 94.075858 94.526377 94.988542 95.461127 95.942947 96.432861 96.929763 97.432584 97.940286 98.451858 98.966313 99.482680 100.000000 100.517320 101.033687 101.548142 102.059714 102.567416 103.070237 103.567139 104.057053 104.538873 105.011458 105.473623 105.924142 106.361747 106.785130 107.192938 107.583783 107.956244 108.308866 108.640173 108.948670 109.232851 109.491211 109.722249 109.924485 110.096467 110.236782 110.344070 110.417036 110.454464 110.455226 110.418301 110.342783 110.227897 110.073009 109.877641 109.641481 109.364394 109.046432 108.687843 108.289078 107.850801 107.373891 106.859448 106.308793 105.723475 105.105261 104.456145 103.778334 103.074250 102.346517
99.058142 98.389425 97.731687 97.087461 96.459189 95.849207 95.259743 94.692907 94.150685 93.634931 93.147368 92.689578 92.263003 91.868939 91.508537 91.182801 90.892590 90.638612 90.421434 90.241477 90.099019 89.994201 89.927027 89.897370 89.904973 89.949458 90.030325 90.146959 90.298640 90.484538 90.703729 90.955192 91.237819 91.550421 91.891729 92.260402 92.655035 93.074157 93.516245 93.979720 94.462957 94.964291 95.482015 96.014392 96.559653 97.116003 97.681627 98.254691 98.833348 99.415740 100.000000 100.584260 101.166652 101.745309 102.318373 102.883997 103.440347 103.985608 104.517985 105.035709 105.537043 106.020280 106.483755 106.925843 107.344965 107.739598 108.108271 108.449579 108.762181 109.044808 109.296271 109.515462 109.701360 109.853041 109.969675 110.050542 110.095027 110.102630 110.072973 110.005799 109.900981 109.758523 109.578566 109.361388 109.107410 108.817199 108.491463 108.131061 107.736997 107.310422 106.852632 106.365069 105.849315 105.307093 104.740257 104.150793 103.540811 102.912539 102.268313 101.610575 100.941858
100.471161 99.864079 99.255221 98.647021 98.041929 97.442406 96.850908 96.269876 95.701730 95.148854 94.613588 94.098214 93.604949 93.135934 92.693221 92.278768 91.894423 91.541921 91.222873 90.938755 90.690904 90.480509 90.308606 90.176070 90.083610 90.031765 90.020903 90.051214 90.122708 90.235220 90.388399 90.581721 90.814479 91.085792 91.394607 91.739701 92.119689 92.533027 92.978019 93.452825 93.955468 94.483846 95.035736 95.608807 96.200632 96.808696 97.430409 98.063117 98.704118 99.350669 100.000000 100.649331 101.295882 101.936883 102.569591 103.191304 103.799368 104.391193 104.964264 105.516154 106.044532 106.547175 107.021981 107.466973 107.880311 108.260299 108.605393 108.914208 109.185521 109.418279 109.611601 109.764780 109.877292 109.948786 109.979097 109.968235 109.916390 109.823930 109.691394 109.519491 109.309096 109.061245 108.777127 108.458079 108.105577 107.721232 107.306779 106.864066 106.395051 105.901786 105.386412 104.851146 104.298270 103.730124 103.149092 102.557594 101.958071 101.352979 100.744779 100.135921 99.528839
101.879999 101.336957 100.779413 100.209689 99.630238 99.043630 98.452539 97.859730 97.268045 96.680386 96.099700 95.528958 94.971145 94.429232 93.906165 93.404843 92.928099 92.478683 92.059241 91.672300 91.320245 91.005310 90.729552 90.494846 90.302862 90.155054 90.052654 89.996652 89.987793 90.026570 90.113212 90.247686 90.429693 90.658664 90.933764 91.253894 91.617693 92.023551 92.469607 92.953768 93.473713 94.026913 94.610638 95.221976 95.857850 96.515038 97.190186 97.879835 98.580438 99.288378 100.000000 100.711622 101.419562 102.120165 102.809814 103.484962 104.142150 104.778024 105.389362 105.973087 106.526287 107.046232 107.530393 107.976449 108.382307 108.746106 109.066236 109.341336 109.570307 109.752314 109.886788 109.973430 110.012207 110.003348 109.947346 109.844946 109.697138 109.505154 109.270448 108.994690 108.679755 108.327700 107.940759 107.521317 107.071901 106.595157 106.093835 105.570768 105.028855 104.471042 103.900300 103.319614 102.731955 102.140270 101.547461 100.956370 100.369762 99.790311 99.220587 98.663043 98.120001
103.272149 102.795332 102.291425 101.762630 101.211390 100.640371 100.052453 99.450708 98.838387 98.218891 97.595757 96.972631 96.353241 95.741376 95.140853 94.555496 93.989103 93.445419 92.928110 92.440732 91.986705 91.569288 91.191549 90.856344 90.566291 90.323750 90.130803 89.989234 89.900513 89.865786 89.885857 89.961184 90.091872 90.277666 90.517951 90.811757 91.157755 91.554273 91.999299 92.490496 93.025212 93.600505 94.213153 94.859681 95.536381 96.239341 96.964465 97.707506 98.464096 99.229769 100.000000 100.770231 101.535904 102.292494 103.035535 103.760659 104.463619 105.140319 105.786847 106.399495 106.974788 107.509504 108.000701 108.445727 108.842245 109.188243 109.482049 109.722334 109.908128 110.038816 110.114143 110.134214 110.099487 110.010766 109.869197 109.676250 109.433709 109.143656 108.808451 108.430712 108.013295 107.559268 107.071890 106.554581 106.010897 105.444504 104.859147 104.258624 103.646759 103.027369 102.404243 101.781109 101.161613 100.549292 99.947547 99.359629 98.788610 98.237370 97.708575 97.204668 96.727851
104.635255 104.226617 103.778550 103.293126 102.772763 102.220212 101.638540 101.031109 100.401554 99.753757 99.091822 98.420040 97.742862 97.064863 96.390707 95.725114 95.072817 94.438530 93.826910 93.242516 92.689775 92.172945 91.696080 91.262994 90.877233 90.542040 90.260330 90.034665 89.867226 89.759800 89.713758 89.730042 89.809157 89.951159 90.155658 90.421813 90.748336 91.133504 91.575162 92.070744 92.617287 93.211452 93.849548 94.527559 95.241171 95.985808 96.756661 97.548725 98.356838 99.175717 100.000000 100.824283 101.643162 102.451275 103.243339 104.014192 104.758829 105.472441 106.150452 106.788548 107.382713 107.929256 108.424838 108.866496 109.251664 109.578187 109.844342 110.048841 110.190843 110.269958 110.286242 110.240200 110.132774 109.965335 109.739670 109.457960 109.122767 108.737006 108.303920 107.827055 107.310225 106.757484 106.173090 105.561470 104.927183 104.274886 103.609293 102.935137 102.257138 101.579960 100.908178 100.246243 99.598446 98.968891 98.361460 97.779788 97.227237 96.706874 96.221450 95.773383 95.364745
105.957218 105.618473 105.228317 104.788682 104.301948 103.770932 103.198869 102.589386 101.946480 101.274485 100.578040 99.862053 99.131661 98.392193 97.649123 96.908027 96.174541 95.454307 94.752936 94.075953 93.428756 92.816567 92.244390 91.716969 91.238743 90.813813 90.445901 90.138323 89.893952 89.715199 89.603986 89.561731 89.589329 89.687149 89.855021 90.092238 90.397562 90.769225 91.204949 91.701954 92.256984 92.866330 93.525858 94.231039 94.976986 95.758491 96.570068 97.405992 98.260346 99.127069 100.000000 100.872931 101.739654 102.594008 103.429932 104.241509 105.023014 105.768961 106.474142 107.133670 107.743016 108.298046 108.795051 109.230775 109.602438 109.907762 110.144979 110.312851 110.410671 110.438269 110.396014 110.284801 110.106048 109.861677 109.554099 109.186187 108.761257 108.283031 107.755610 107.183433 106.571244 105.924047 105.247064 104.545693 103.825459 103.091973 102.350877 101.607807 100.868339 100.137947 99.421960 98.725515 98.053520 97.410614 96.801131 96.229068 95.698052 95.211318 94.771683 94.381527 94.042782
107.226305 106.958919 106.628605 106.237140 105.786852 105.280605 104.721778 104.114240 103.462317 102.770763 102.044716 101.289662 100.511384 99.715922 98.909513 98.098550 97.289518 96.488946 95.703350 94.939176 94.202745 93.500200 92.837455 92.220139 91.653549 91.142604 90.691805 90.305188 89.986295 89.738137 89.563171 89.463273 89.439723 89.493191 89.623729 89.830769 90.113127 90.469006 90.896017 91.391189 91.950997 92.571390 93.247821 93.975285 94.748359 95.561246 96.407823 97.281690 98.176223 99.084629 100.000000 100.915371 101.823777 102.718310 103.592177 104.438754 105.251641 106.024715 106.752179 107.428610 108.049003 108.608811 109.103983 109.530994 109.886873 110.169231 110.376271 110.506809 110.560277 110.536727 110.436829 110.261863 110.013705 109.694812 109.308195 108.857396 108.346451 107.779861 107.162545 106.499800 105.797255 105.060824 104.296650 103.511054 102.710482 101.901450 101.090487 100.284078 99.488616 98.710338 97.955284 97.229237 96.537683 95.885760 95.278222 94.719395 94.213148 93.762860 93.371395 93.041081 92.773695
108.431251 108.236438 107.967742 107.626775 107.215796 106.737697 106.195976 105.594709 104.938522 104.232548 103.482384 102.694048 101.873922 101.028704 100.165348 99.291004 98.412956 97.538561 96.675186 95.830142 95.010620 94.223633 93.475949 92.774035 92.124000 91.531541 91.001891 90.539777 90.149374 89.834268 89.597424 89.441163 89.367134 89.376303 89.468939 89.644618 89.902214 90.239918 90.655246 91.145060 91.705594 92.332487 93.020817 93.765141 94.559545 95.397690 96.272867 97.178054 98.105973 99.049154 100.000000 100.950846 101.894027 102.821946 103.727133 104.602310 105.440455 106.234859 106.979183 107.667513 108.294406 108.854940 109.344754 109.760082 110.097786 110.355382 110.531061 110.623697 110.632866 110.558837 110.402576 110.165732 109.850626 109.460223 108.998109 108.468459 107.876000 107.225965 106.524051 105.776367 104.989380 104.169858 103.324814 102.461439 101.587044 100.708996 99.834652 98.971296 98.126078 97.305952 96.517616 95.767452 95.061478 94.405291 93.804024 93.262303 92.784204 92.373225 92.032258 91.763562 91.568749
109.561360 109.440073 109.234607 108.946398 108.577620 108.131167 107.610628 107.020258 106.364940 105.650144 104.881879 104.066644 103.211368 102.323349 101.410195 100.479754 99.540047 98.599195 97.665353 96.746631 95.851031 94.986369 94.160213 93.379811 92.652028 91.983287 91.379513 90.846077 90.387750 90.008661 89.712260 89.501286 89.377743 89.342883 89.397192 89.540384 89.771409 90.088454 90.488962 90.969652 91.526551 92.155021 92.849808 93.605077 94.414473 95.271167 96.167921 97.097150 98.050985 99.021344 100.000000 100.978656 101.949015 102.902850 103.832079 104.728833 105.585527 106.394923 107.150192 107.844979 108.473449 109.030348 109.511038 109.911546 110.228591 110.459616 110.602808 110.657117 110.622257 110.498714 110.287740 109.991339 109.612250 109.153923 108.620487 108.016713 107.347972 106.620189 105.839787 105.013631 104.148969 103.253369 102.334647 101.400805 100.459953 99.520246 98.589805 97.676651 96.788632 95.933356 95.118121 94.349856 93.635060 92.979742 92.389372 91.868833 91.422380 91.053602 90.765393 90.559927 90.438640
110.606602 110.559529 110.418730 110.185453 109.861769 109.450551 108.955450 108.380860 107.731880 107.014272 106.234404 105.399200 104.516071 103.592858 102.637755 101.659238 100.665994 99.666839 98.670640 97.686242 96.722380 95.787611 94.890231 94.038205 93.239098 92.500000 91.827473 91.227486 90.705364 90.265742 89.912522 89.648840 89.477035 89.398632 89.414328 89.523983 89.726624 90.020452 90.402860 90.870452 91.419079 92.043871 92.739281 93.499139 94.316699 95.184704 96.095449 97.040852 98.012521 99.001831 100.000000 100.998169 101.987479 102.959148 103.904551 104.815296 105.683301 106.500861 107.260719 107.956129 108.580921 109.129548 109.597140 109.979548 110.273376 110.476017 110.585672 110.601368 110.522965 110.351160 110.087478 109.734258 109.294636 108.772514 108.172527 107.500000 106.760902 105.961795 105.109769 104.212389 103.277620 102.313758 101.329360 100.333161 99.334006 98.340762 97.362245 96.407142 95.483929 94.600800 93.765596 92.985728 92.268120 91.619140 91.044550 90.549449 90.138231 89.814547 89.581270 89.440471 89.393398
111.557699 111.585258 111.510375 111.334100 111.058384 110.686052 110.220782 109.667072 109.030191 108.316140 107.531592 106.683831 105.780690 104.830477 103.841901 102.823994 101.786030 100.737439 99.687727 98.646389 97.622821 96.626241 95.665603 94.749518 93.886178 93.083283 92.347972 91.686760 91.105478 90.609225 90.202322 89.888271 89.669728 89.548479 89.525424 89.600568 89.773026 90.041030 90.401943 90.852287 91.387772 92.003339 92.693202 93.450903 94.269370 95.140981 96.057635 97.010820 97.991698 98.991177 100.000000 101.008823 102.008302 102.989180 103.942365 104.859019 105.730630 106.549097 107.306798 107.996661 108.612228 109.147713 109.598057 109.958970 110.226974 110.399432 110.474576 110.451521 110.330272 110.111729 109.797678 109.390775 108.894522 108.313240 107.652028 106.916717 106.113822 105.250482 104.334397 103.373759 102.377179 101.353611 100.312273 99.262561 98.213970 97.176006 96.158099 95.169523 94.219310 93.316169 92.468408 91.683860 90.969809 90.332928 89.779218 89.313948 88.941616 88.665900 88.489625 88.414742 88.442301
112.406209 112.508544 112.500629 112.383306 112.158383 111.828615 111.397673 110.870114 110.251332 109.547511 108.765567 107.913082 106.998237 106.029733 105.016717 103.968693 102.895439 101.806919 100.713188 99.624307 98.550250 97.500814 96.485528 95.513575 94.593703 93.734150 92.942570 92.225965 91.590621 91.042058 90.584974 90.223211 89.959716 89.796520 89.734719 89.774467 89.914974 90.154517 90.490457 90.919263 91.436547 92.037104 92.714961 93.463433 94.275186 95.142301 96.056352 97.008480 97.989477 98.989867 100.000000 101.010133 102.010523 102.991520 103.943648 104.857699 105.724814 106.536567 107.285039 107.962896 108.563453 109.080737 109.509543 109.845483 110.085026 110.225533 110.265281 110.203480 110.040284 109.776789 109.415026 108.957942 108.409379 107.774035 107.057430 106.265850 105.406297 104.486425 103.514472 102.499186 101.449750 100.375693 99.286812 98.193081 97.104561 96.031307 94.983283 93.970267 93.001763 92.086918 91.234433 90.452489 89.748668 89.129886 88.602327 88.171385 87.841617 87.616694 87.499371 87.491456 87.593791
113.144600 113.321579 113.381475 113.324912 113.153537 112.870005 112.477946 111.981933 111.387434 110.700759 109.929002 109.079973 108.162125 107.184477 106.156525 105.088162 103.989582 102.871188 101.743498 100.617049 99.502300 98.409537 97.348786 96.329714 95.361548 94.452990 93.612143 92.846432 92.162545 91.566370 91.062947 90.656419 90.350003 90.145956 90.045563 90.049125 90.155957 90.364400 90.671837 91.074717 91.568595 92.148168 92.807335 93.539243 94.336364 95.190557 96.093147 97.035009 98.006650 98.998299 100.000000 101.001701 101.993350 102.964991 103.906853 104.809443 105.663636 106.460757 107.192665 107.851832 108.431405 108.925283 109.328163 109.635600 109.844043 109.950875 109.954437 109.854044 109.649997 109.343581 108.937053 108.433630 107.837455 107.153568 106.387857 105.547010 104.638452 103.670286 102.651214 101.590463 100.497700 99.382951 98.256502 97.128812 96.010418 94.911838 93.843475 92.815523 91.837875 90.920027 90.070998 89.299241 88.612566 88.018067 87.522054 87.129995 86.846463 86.675088 86.618525 86.678421 86.855400
113.766319 114.017531 114.145862 114.151706 114.036533 113.802868 113.454265 112.995266 112.431360 111.768924 111.015164 110.178045 109.266213 108.288917 107.255921 106.177414 105.063911 103.926162 102.775049 101.621491 100.476336 99.350272 98.253723 97.196759 96.189001 95.239540 94.356852 93.548723 92.822180 92.183433 91.637815 91.189738 90.842659 90.599046 90.460362 90.427054 90.498552 90.673277 90.948661 91.321168 91.786339 92.338826 92.972451 93.680266 94.454614 95.287210 96.169213 97.091316 98.043831 99.016782 100.000000 100.983218 101.956169 102.908684 103.830787 104.712790 105.545386 106.319734 107.027549 107.661174 108.213661 108.678832 109.051339 109.326723 109.501448 109.572946 109.539638 109.400954 109.157341 108.810262 108.362185 107.816567 107.177820 106.451277 105.643148 104.760460 103.810999 102.803241 101.746277 100.649728 99.523664 98.378509 97.224951 96.073838 94.936089 93.822586 92.744079 91.711083 90.733787 89.821955 88.984836 88.231076 87.568640 87.004734 86.545735 86.197132 85.963467 85.848294 85.854138 85.982469 86.233681
114.265848 114.590602 114.787762 114.857484 114.801038 114.620793 114.320188 113.903692 113.376757 112.745766 112.017968 111.201404 110.304836 109.337657 108.309806 107.231670 106.113994 104.967772 103.804154 102.634336 101.469463 100.320522 99.198245 98.113010 97.074751 96.092862 95.176120 94.332601 93.569611 92.893625 92.310225 91.824055 91.438781 91.157065 90.980536 90.909789 90.944374 91.082812 91.322609 91.660282 92.091399 92.610621 93.211757 93.887822 94.631111 95.433271 96.285379 97.178036 98.101449 99.045532 100.000000 100.954468 101.898551 102.821964 103.714621 104.566729 105.368889 106.112178 106.788243 107.389379 107.908601 108.339718 108.677391 108.917188 109.055626 109.090211 109.019464 108.842935 108.561219 108.175945 107.689775 107.106375 106.430389 105.667399 104.823880 103.907138 102.925249 101.886990 100.801755 99.679478 98.530537 97.365664 96.195846 95.032228 93.886006 92.768330 91.690194 90.662343 89.695164 88.798596 87.982032 87.254234 86.623243 86.096308 85.679812 85.379207 85.198962 85.142516 85.212238 85.409398 85.734152
114.638751 115.036079 115.302224 115.437094 115.441744 115.318358 115.070220 114.701679 114.218098 113.625800 112.932006 112.144759 111.272849 110.325725 109.313406 108.246386 107.135532 105.991986 104.827059 103.652126 102.478522 101.317436 100.179809 99.076237 98.016872 97.011331 96.068611 95.197009 94.404045 93.696403 93.079865 92.559268 92.138461 91.820272 91.606492 91.497856 91.494049 91.593705 91.794434 92.092840 92.484565 92.964330 93.525992 94.162602 94.866478 95.629281 96.442093 97.295512 98.179736 99.084666 100.000000 100.915334 101.820264 102.704488 103.557907 104.370719 105.133522 105.837398 106.474008 107.035670 107.515435 107.907160 108.205566 108.406295 108.505951 108.502144 108.393508 108.179728 107.861539 107.440732 106.920135 106.303597 105.595955 104.802991 103.931389 102.988669 101.983128 100.923763 99.820191 98.682564 97.521478 96.347874 95.172941 94.008014 92.864468 91.753614 90.686594 89.674275 88.727151 87.855241 87.067994 86.374200 85.781902 85.298321 84.929780 84.681642 84.558256 84.562906 84.697776 84.963921 85.361249
114.881721 115.350373 115.685410 115.886484 115.954414 115.891171 115.699848 115.384626 114.950722 114.404337 113.752592 113.003451 112.165648 111.248598 110.262305 109.217268 108.124378 106.994819 105.839958 104.671245 103.500099 102.337809 101.195428 100.083670 99.012817 97.992620 97.032220 96.140056 95.323800 94.590285 93.945446 93.394271 92.940759 92.587887 92.337592 92.190752 92.147188 92.205670 92.363936 92.618716 92.965771 93.399936 93.915176 94.504649 95.160772 95.875301 96.639413 97.443794 98.278730 99.134204 100.000000 100.865796 101.721270 102.556206 103.360587 104.124699 104.839228 105.495351 106.084824 106.600064 107.034229 107.381284 107.636064 107.794330 107.852812 107.809248 107.662408 107.412113 107.059241 106.605729 106.054554 105.409715 104.676200 103.859944 102.967780 102.007380 100.987183 99.916330 98.804572 97.662191 96.499901 95.328755 94.160042 93.005181 91.875622 90.782732 89.737695 88.751402 87.834352 86.996549 86.247408 85.595663 85.049278 84.615374 84.300152 84.108829 84.045586 84.113516 84.314590 84.649627 85.118279
114.992598 115.531052 115.934633 116.202730 116.335911 116.335904 116.205577 115.948892 115.570866 115.077514 114.475782 113.773480 112.979200 112.102228 111.152459 110.140297 109.076555 107.972350 106.839004 105.687931 104.530532 103.378091 102.241670 101.132008 100.059419 99.033705 98.064065 97.159011 96.326296 95.572843 94.904691 94.326937 93.843698 93.458079 93.172148 92.986924 92.902373 92.917419 93.029953 93.236867 93.534087 93.916617 94.378592 94.913345 95.513471 96.170904 96.877002 97.622631 98.398262 99.194063 100.000000 100.805937 101.601738 102.377369 103.122998 103.829096 104.486529 105.086655 105.621408 106.083383 106.465913 106.763133 106.970047 107.082581 107.097627 107.013076 106.827852 106.541921 106.156302 105.673063 105.095309 104.427157 103.673704 102.840989 101.935935 100.966295 99.940581 98.867992 97.758330 96.621909 95.469468 94.312069 93.160996 92.027650 90.923445 89.859703 88.847541 87.897772 87.020800 86.226520 85.524218 84.922486 84.429134 84.051108 83.794423 83.664096 83.664089 83.797270 84.065367 84.468948 85.007402
114.970401 115.576859 116.048372 116.384060 116.584221 116.650317 116.584948 116.391816 116.075683 115.642311 115.098403 114.451531 113.710060 112.883061 111.980220 111.011746 109.988270 108.920740 107.820323 106.698291 105.565923 104.434393 103.314671 102.217419 101.152897 100.130864 99.160497 98.250305 97.408054 96.640702 95.954334 95.354118 94.844257 94.427958 94.107410 93.883769 93.757155 93.726656 93.790350 93.945324 94.187713 94.512744 94.914786 95.387415 95.923478 96.515172 97.154122 97.831470 98.537965 99.264058 100.000000 100.735942 101.462035 102.168530 102.845878 103.484828 104.076522 104.612585 105.085214 105.487256 105.812287 106.054676 106.209650 106.273344 106.242845 106.116231 105.892590 105.572042 105.155743 104.645882 104.045666 103.359298 102.591946 101.749695 100.839503 99.869136 98.847103 97.782581 96.685329 95.565607 94.434077 93.301709 92.179677 91.079260 90.011730 88.988254 88.019780 87.116939 86.289940 85.548469 84.901597 84.357689 83.924317 83.608184 83.415052 83.349683 83.415779 83.615940 83.951628 84.423141 85.029599
114.815325 115.487721 116.026285 116.429863 116.698466 116.833264 116.836556 116.711739 116.463261 116.096572 115.618060 115.034982 114.355392 113.588053 112.742348 111.828193 110.855932 109.836242 108.780027 107.698315 106.602153 105.502503 104.410142 103.335560 102.288864 101.279688 100.317104 99.409540 98.564711 97.789545 97.090128 96.471654 95.938378 95.493588 95.139580 94.877641 94.708052 94.630086 94.642027 94.741195 94.923980 95.185882 95.521566 95.924919 96.389115 96.906696 97.469640 98.069456 98.697265 99.343902 100.000000 100.656098 101.302735 101.930544 102.530360 103.093304 103.610885 104.075081 104.478434 104.814118 105.076020 105.258805 105.357973 105.369914 105.291948 105.122359 104.860420 104.506412 104.061622 103.528346 102.909872 102.210455 101.435289 100.590460 99.682896 98.720312 97.711136 96.664440 95.589858 94.497497 93.397847 92.301685 91.219973 90.163758 89.144068 88.171807 87.257652 86.411947 85.644608 84.965018 84.381940 83.903428 83.536739 83.288261 83.163444 83.166736 83.301534 83.570137 83.973715 84.512279 85.184675
114.528747 115.264752 115.869212 116.340691 116.678906 116.884706 116.960056 116.908001 116.732628 116.439010 116.033152 115.521921 114.912975 114.214680 113.436025 112.586534 111.676165 110.715219 109.714235 108.683889 107.634895 106.577901 105.523392 104.481587 103.462351 102.475104 101.528731 100.631509 99.791031 99.014138 98.306865 97.674389 97.120985 96.650000 96.263819 95.963862 95.750572 95.623423 95.580931 95.620683 95.739365 95.932803 96.196015 96.523267 96.908136 97.343584 97.822029 98.335436 98.875392 99.433208 100.000000 100.566792 101.124608 101.664564 102.177971 102.656416 103.091864 103.476733 103.803985 104.067197 104.260635 104.379317 104.419069 104.376577 104.249428 104.036138 103.736181 103.350000 102.879015 102.325611 101.693135 100.985862 100.208969 99.368491 98.471269 97.524896 96.537649 95.518413 94.476608 93.422099 92.365105 91.316111 90.285765 89.284781 88.323835 87.413466 86.563975 85.785320 85.087025 84.478079 83.966848 83.560990 83.267372 83.091999 83.039944 83.115294 83.321094 83.659309 84.130788 84.735248 85.471253
114.113212 114.910238 115.579158 116.118255 116.526931 116.805697 116.956151 116.980944 116.883750 116.669208 116.342871 115.911144 115.381208 114.760947 114.058865 113.283998 112.445821 111.554157 110.619080 109.650814 108.659638 107.655784 106.649346 105.650183 104.667827 103.711395 102.789510 101.910222 101.080936 100.308351 99.598398 98.956196 98.386010 97.891217 97.474282 97.136750 96.879233 96.701418 96.602079 96.579101 96.629506 96.749497 96.934504 97.179233 97.477735 97.823470 98.209379 98.627966 99.071378 99.531491 100.000000 100.468509 100.928622 101.372034 101.790621 102.176530 102.522265 102.820767 103.065496 103.250503 103.370494 103.420899 103.397921 103.298582 103.120767 102.863250 102.525718 102.108783 101.613990 101.043804 100.401602 99.691649 98.919064 98.089778 97.210490 96.288605 95.332173 94.349817 93.350654 92.344216 91.340362 90.349186 89.380920 88.445843 87.554179 86.716002 85.941135 85.239053 84.618792 84.088856 83.657129 83.330792 83.116250 83.019056 83.043849 83.194303 83.473069 83.881745 84.420842 85.089762 85.886788
113.572406 114.427617 115.159281 115.765398 116.245046 116.598376 116.826586 116.931899 116.917524 116.787611 116.547200 116.202158 115.759117 115.225394 114.608920 113.918152 113.161990 112.349682 111.490737 110.594829 109.671703 108.731082 107.782575 106.835586 105.899226 104.982232 104.092885 103.238937 102.427542 101.665197 100.957682 100.310019 99.726427 99.210293 98.764148 98.389653 98.087596 97.857890 97.699587 97.610902 97.589233 97.631207 97.732715 97.888972 98.094566 98.343531 98.629407 98.945321 99.284065 99.638170 100.000000 100.361830 100.715935 101.054679 101.370593 101.656469 101.905434 102.111028 102.267285 102.368793 102.410767 102.389098 102.300413 102.142110 101.912404 101.610347 101.235852 100.789707 100.273573 99.689981 99.042318 98.334803 97.572458 96.761063 95.907115 95.017768 94.100774 93.164414 92.217425 91.268918 90.328297 89.405171 88.509263 87.650318 86.838010 86.081848 85.391080 84.774606 84.240883 83.797842 83.452800 83.212389 83.082476 83.068101 83.173414 83.401624 83.754954 84.234602 84.840719 85.572383 86.427594
112.911130 113.821449 114.613857 115.286073 115.836842 116.265935 116.574125 116.763166 116.835761 116.795517 116.646898 116.395173 116.046344 115.607089 115.084681 114.486912 113.822014 113.098570 112.325431 111.511626 110.666274 109.798495 108.917322 108.031619 107.149992 106.280717 105.431659 104.610205 103.823197 103.076873 102.376818 101.727913 101.134302 100.599358 100.125664 99.714993 99.368310 99.085765 98.866712 98.709720 98.612603 98.572451 98.585675 98.648049 98.754767 98.900503 99.079473 99.285505 99.512114 99.752574 100.000000 100.247426 100.487886 100.714495 100.920527 101.099497 101.245233 101.351951 101.414325 101.427549 101.387397 101.290280 101.133288 100.914235 100.631690 100.285007 99.874336 99.400642 98.865698 98.272087 97.623182 96.923127 96.176803 95.389795 94.568341 93.719283 92.850008 91.968381 91.082678 90.201505 89.333726 88.488374 87.674569 86.901430 86.177986 85.513088 84.915319 84.392911 83.953656 83.604827 83.353102 83.204483 83.164239 83.236834 83.425875 83.734065 84.163158 84.713927 85.386143 86.178551 87.088870
112.135255 113.097370 113.948241 114.685302 115.306962 115.812591 116.202515 116.477986 116.641158 116.695048 116.643489 116.491084 116.243145 115.905631 115.485081 114.988542 114.423492 113.797762 113.119459 112.396876 111.638418 110.852514 110.047538 109.231728 108.413109 107.599419 106.798037 106.015919 105.259537 104.534818 103.847104 103.201101 102.600844 102.049673 101.550204 101.104320 100.713163 100.377132 100.095898 99.868413 99.692938 99.567071 99.487785 99.451470 99.453986 99.490710 99.556602 99.646265 99.754014 99.873944 100.000000 100.126056 100.245986 100.353735 100.443398 100.509290 100.546014 100.548530 100.512215 100.432929 100.307062 100.131587 99.904102 99.622868 99.286837 98.895680 98.449796 97.950327 97.399156 96.798899 96.152896 95.465182 94.740463 93.984081 93.201963 92.400581 91.586891 90.768272 89.952462 89.147486 88.361582 87.603124 86.880541 86.202238 85.576508 85.011458 84.514919 84.094369 83.756855 83.508916 83.356511 83.304952 83.358842 83.522014 83.797485 84.187409 84.693038 85.314698 86.051759 86.902630 87.864745
111.251666 112.262047 113.168815 113.969129 114.661051 115.243541 115.716453 116.080507 116.337273 116.489131 116.539233 116.491462 116.350371 116.121137 115.809493 115.421661 114.964291 114.444381 113.869207 113.246250 112.583115 111.887461 111.166920 110.429028 109.681155 108.930429 108.183679 107.447369 106.727541 106.029768 105.359101 104.720036 104.116472 103.551690 103.028329 102.548373 102.113143 101.723295 101.378833 101.079116 100.822881 100.608271 100.432866 100.293721 100.187413 100.110084 100.057502 100.025111 100.008095 100.001440 100.000000 99.998560 99.991905 99.974889 99.942498 99.889916 99.812587 99.706279 99.567134 99.391729 99.177119 98.920884 98.621167 98.276705 97.886857 97.451627 96.971671 96.448310 95.883528 95.279964 94.640899 93.970232 93.272459 92.552631 91.816321 91.069571 90.318845 89.570972 88.833080 88.112539 87.416885 86.753750 86.130793 85.555619 85.035709 84.578339 84.190507 83.878863 83.649629 83.508538 83.460767 83.510869 83.662727 83.919493 84.283547 84.756459 85.338949 86.030871 86.831185 87.737953 88.748334
110.268207 111.323111 112.282935 113.144564 113.905709 114.564912 115.121534 115.575740 115.928480 116.181459 116.337103 116.398520 116.369454 116.254232 116.057717 115.785241 115.442550 115.035736 114.571172 114.055447 113.495293 112.897521 112.268951 111.616347 110.946349 110.265415 109.579761 108.895301 108.217600 107.551824 106.902699 106.274472 105.670881 105.095128 104.549859 104.037152 103.558506 103.114843 102.706513 102.333301 101.994449 101.688677 101.414208 101.168809 100.949820 100.754205 100.578593 100.419332 100.272537 100.134151 100.000000 99.865849 99.727463 99.580668 99.421407 99.245795 99.050180 98.831191 98.585792 98.311323 98.005551 97.666699 97.293487 96.885157 96.441494 95.962848 95.450141 94.904872 94.329119 93.725528 93.097301 92.448176 91.782400 91.104699 90.420239 89.734585 89.053651 88.383653 87.731049 87.102479 86.504707 85.944553 85.428828 84.964264 84.557450 84.214759 83.942283 83.745768 83.630546 83.601480 83.662897 83.818541 84.071520 84.424260 84.878466 85.435088 86.094291 86.855436 87.717065 88.676889 89.731793
109.193606 110.289095 111.298860 112.219515 113.048425 113.783701 114.424199 114.969506 115.419925 115.776452 116.040746 116.215096 116.302382 116.306034 116.229981 116.078606 115.856686 115.569342 115.221976 114.820215 114.369853 113.876784 113.346948 112.786271 112.200607 111.595680 110.977037 110.349992 109.719583 109.090531 108.467195 107.853544 107.253128 106.669050 106.103951 105.559992 105.038853 104.541724 104.069312 103.621847 103.199097 102.800386 102.424619 102.070307 101.735601 101.418329 101.116035 100.826019 100.545388 100.271096 100.000000 99.728904 99.454612 99.173981 98.883965 98.581671 98.264399 97.929693 97.575381 97.199614 96.800903 96.378153 95.930688 95.458276 94.961147 94.440008 93.896049 93.330950 92.746872 92.146456 91.532805 90.909469 90.280417 89.650008 89.022963 88.404320 87.799393 87.213729 86.653052 86.123216 85.630147 85.179785 84.778024 84.430658 84.143314 83.921394 83.770019 83.693966 83.697618 83.784904 83.959254 84.223548 84.580075 85.030494 85.575801 86.216299 86.951575 87.780485 88.701140 89.710905 90.806394
108.037402 109.169355 110.225675 111.202721 112.097508 112.907712 113.631674 114.268385 114.817479 115.279212 115.654444 115.944607 116.151675 116.278131 116.326922 116.301426 116.205398 116.042926 115.818385 115.536381 115.201706 114.819280 114.394104 113.931208 113.435603 112.912228 112.365911 111.801319 111.222923 110.634954 110.041376 109.445851 108.851714 108.261951 107.679183 107.105651 106.543210 105.993321 105.457057 104.935107 104.427783 103.935039 103.456485 102.991411 102.538816 102.097431 101.665755 101.242091 100.824579 100.411237 100.000000 99.588763 99.175421 98.757909 98.334245 97.902569 97.461184 97.008589 96.543515 96.064961 95.572217 95.064893 94.542943 94.006679 93.456790 92.894349 92.320817 91.738049 91.148286 90.554149 89.958624 89.365046 88.777077 88.198681 87.634089 87.087772 86.564397 86.068792 85.605896 85.180720 84.798294 84.463619 84.181615 83.957074 83.794602 83.698574 83.673078 83.721869 83.848325 84.055393 84.345556 84.720788 85.182521 85.731615 86.368326 87.092288 87.902492 88.797279 89.774325 90.830645 91.962598
106.809857 107.973982 109.073216 110.103668 111.062008 111.945480 112.751898 113.479646 114.127672 114.695471 115.183074 115.591024 115.920356 116.172564 116.349576 116.453714 116.487666 116.454441 116.357332 116.199875 115.985808 115.719026 115.403540 115.043435 114.642830 114.205834 113.736511 113.238842 112.716690 112.173768 111.613611 111.039546 110.454674 109.861846 109.263652 108.662401 108.060120 107.458543 106.859116 106.262994 105.671049 105.083882 104.501831 103.924994 103.353241 102.786242 102.223487 101.664315 101.107940 100.553482 100.000000 99.446518 98.892060 98.335685 97.776513 97.213758 96.646759 96.075006 95.498169 94.916118 94.328951 93.737006 93.140884 92.541457 91.939880 91.337599 90.736348 90.138154 89.545326 88.960454 88.386389 87.826232 87.283310 86.761158 86.263489 85.794166 85.357170 84.956565 84.596460 84.280974 84.014192 83.800125 83.642668 83.545559 83.512334 83.546286 83.650424 83.827436 84.079644 84.408976 84.816926 85.304529 85.872328 86.520354 87.248102 88.054520 88.937992 89.896332 90.926784 92.026018 93.190143
105.521868 106.713719 107.851974 108.932503 109.951640 110.906194 111.793452 112.611185 113.357639 114.031533 114.632051 115.158823 115.611913 115.991801 116.299356 116.535815 116.702757 116.802072 116.835931 116.806759 116.717195 116.570068 116.368357 116.115161 115.813666 115.467113 115.078765 114.651882 114.189688 113.695347 113.171938 112.622433 112.049678 111.456374 110.845064 110.218120 109.577734 108.925915 108.264480 107.595059 106.919093 106.237842 105.552391 104.863661 104.172420 103.479297 102.784801 102.089336 101.393218 100.696703 100.000000 99.303297 98.606782 97.910664 97.215199 96.520703 95.827580 95.136339 94.447609 93.762158 93.080907 92.404941 91.735520 91.074085 90.422266 89.781880 89.154936 88.543626 87.950322 87.377567 86.828062 86.304653 85.810312 85.348118 84.921235 84.532887 84.186334 83.884839 83.631643 83.429932 83.282805 83.193241 83.164069 83.197928 83.297243 83.464185 83.700644 84.008199 84.388087 84.841177 85.367949 85.968467 86.642361 87.388815 88.206548 89.093806 90.048360 91.067497 92.148026 93.286281 94.478132
104.184867 105.399861 106.573006 107.699946 108.776689 109.799613 110.765481 111.671445 112.515046 113.294219 114.007282 114.652940 115.230267 115.738705 116.178041 116.548399 116.850221 117.084248 117.251499 117.353251 117.391019 117.366527 117.281690 117.138588 116.939444 116.686597 116.382483 116.029611 115.630538 115.187857 114.704169 114.182070 113.624134 113.032896 112.410842 111.760398 111.083915 110.383671 109.661857 108.920579 108.161851 107.387602 106.599672 105.799817 104.989717 104.170979 103.345146 102.513705 101.678099 100.839736 100.000000 99.160264 98.321901 97.486295 96.654854 95.829021 95.010283 94.200183 93.400328 92.612398 91.838149 91.079421 90.338143 89.616329 88.916085 88.239602 87.589158 86.967104 86.375866 85.817930 85.295831 84.812143 84.369462 83.970389 83.617517 83.313403 83.060556 82.861412 82.718310 82.633473 82.608981 82.646749 82.748501 82.915752 83.149779 83.451601 83.821959 84.261295 84.769733 85.347060 85.992718 86.705781 87.484954 88.328555 89.234519 90.200387 91.223311 92.300054 93.426994 94.600139 95.815133
